# .PCD v0.7 - Point Cloud Data file format
VERSION 0.7
FIELDS x y z
SIZE 4 4 4
TYPE F F F
COUNT 1 1 1
WIDTH 1933
HEIGHT 1
VIEWPOINT 0 0 0 1 0 0 0
POINTS 1933
DATA ascii
551.59497 4110 -1078.9301
579.62903 4110 -1067.54
611.76001 4110 -1063.62
648.98499 4110 -1069.49
684.698 4110 -1065.76
720.40302 4110 -1066.79
755.78699 4110 -1060.8
793.60602 4110 -1058.55
835.39301 4110 -1062.0699
864.01501 4110 -1046.39
916.75897 4110 -1055.77
966.84601 4110 -1062.08
1001.84 4110 -1048.25
1059.8 4110 -1056.92
1100.16 4110 -1046.3
1153.39 4110 -1044.8
1383.8101 4110 -1028.64
1480.9 4110 -1047.2
1522.41 4110 -1022.66
1709.66 4110 -1032.99
2103.49 4110 -1009.66
-2663.72 4110 -903.40198
-1680.27 4110 -1080.14
-1573.4301 4110 -1068.17
-1520.47 4110 -1085.17
-1441.63 4110 -1084.5
-1375.67 4110 -1088.14
-1312.71 4110 -1091.16
-1237.98 4110 -1082.11
-1180.5601 4110 -1084.75
-1130.92 4110 -1091.52
-1083.04 4110 -1095.52
-1033.85 4110 -1102.63
-977.61603 4110 -1097.13
-934.18103 4110 -1100.45
-886.47498 4110 -1097.76
-843.591 4110 -1099.39
-797.81299 4110 -1091.8199
-754.65198 4110 -1089.09
-720.55701 4110 -1096.42
-673.815 4110 -1083.58
-653.50403 4110 -1108.74
-644.72803 4110 -1156.42
-612.69501 4110 -1166.08
-580.53003 4110 -1171.5601
-544.95898 4110 -1171.17
-510.71899 4110 -1173.7
-474.65799 4110 -1164.75
-442.40302 4110 -1169.63
-407.61301 4110 -1163.15
-376.51401 4110 -1162.02
-347.59399 4110 -1167.61
-314.815 4110 -1166
-285.362 4110 -1164.8
-253.806 4110 -1159.8
-222.563 4110 -1151.6899
-193.306 4110 -1145.55
-163.339 4110 -1141.88
-136.146 4110 -1152.99
-107.38 4110 -1147.99
-79.157303 4110 -1150.03
-52.771702 4110 -1151.04
-24.730499 4110 -1147.73
3.4115 4110 -1137.24
30.605301 4110 -1133.34
58.718399 4110 -1132.23
86.775703 4110 -1122.15
115.481 4110 -1116.29
142.13901 4110 -1112.46
169.623 4110 -1112.14
196.304 4110 -1107.99
223.737 4110 -1102.78
251.255 4110 -1104.79
279.57599 4110 -1102.09
306.53799 4110 -1094.9
337.03101 4110 -1102.38
364.44299 4110 -1099.16
393.46899 4110 -1093.09
423.23199 4110 -1094.52
454.16101 4110 -1095.6
484.37 4110 -1093.53
518.005 4110 -1096
546.17499 4110 -1087.28
567.67999 4110 -1062.05
603.91199 4110 -1068.09
636.54999 4110 -1065.3101
669.48401 4110 -1062.99
714.75897 4110 -1074.78
751.06598 4110 -1075.75
784.19598 4110 -1065.85
823.73798 4110 -1063.87
941.73401 4110 -1051.08
988.48798 4110 -1051.9399
1027.53 4110 -1041.0699
1087.39 4110 -1049.51
1150.0601 4110 -1058.46
1230.21 4110 -1027.71
1280.15 4110 -1018.28
1353.17 4110 -1024.91
1439.04 4110 -1036.5601
1496.72 4110 -1024.46
1556.4399 4110 -1011.97
1725.24 4110 -1006.76
1771.01 4110 -977.27002
-1846.52 4140 -1062.73
-1705.42 4140 -1039.97
-1668.58 4140 -1075.2
-1573.3 4140 -1067.46
-1510.23 4140 -1079.72
-1416.5601 4140 -1066.25
-1352.4399 4140 -1071.5699
-1282.99 4140 -1069.42
-1223.72 4140 -1072.59
-1178.9399 4140 -1085.04
-1117.5699 4140 -1081.59
-1060.36 4140 -1077.86
-1013.14 4140 -1084.6801
-966.68903 4140 -1088.45
-919.784 4140 -1087.09
-877.74799 4140 -1089.38
-784.25098 4140 -1080.67
-745.61401 4140 -1080.45
-707.09998 4140 -1080.4301
-678.00098 4140 -1093.64
-662.12402 4140 -1126.87
-644.75 4140 -1162.41
-608.49799 4140 -1163.49
-574.59802 4140 -1169.1899
-544.508 4140 -1176.0601
-505.022 4140 -1165.8101
-469.366 4140 -1164.46
-436.36801 4140 -1162.28
-402.51401 4140 -1155.66
-371.79401 4140 -1160.39
-340.836 4140 -1155.27
-311.59601 4140 -1159.1
-278.80499 4140 -1157.14
-247.74699 4140 -1151.65
-217.394 4140 -1145.05
-187.847 4140 -1141.65
-162.556 4140 -1149.8199
-133.19901 4140 -1149.5601
-104.204 4140 -1147.78
-75.493698 4140 -1147.02
-48.345299 4140 -1150.48
-19.670799 4140 -1144.83
7.4170499 4140 -1133.23
35.7327 4140 -1129.1801
62.358501 4140 -1125.27
89.887604 4140 -1126.42
120.062 4140 -1118.83
146.959 4140 -1111.58
174.854 4140 -1111.83
204.211 4140 -1113.6801
230.726 4140 -1109.26
259.34 4140 -1110.88
287.927 4140 -1112.08
316.66901 4140 -1108.92
343.86301 4140 -1101.05
375.45999 4140 -1103.1
405.78799 4140 -1106.4399
436.75101 4140 -1103.46
469.53299 4140 -1108.67
498.56799 4140 -1101.96
526.495 4140 -1093.0601
551.40302 4140 -1075.65
587.422 4140 -1078.39
618.16498 4140 -1072.04
657.534 4140 -1076.29
701.10303 4140 -1089.99
739.55603 4140 -1090.65
773.22101 4140 -1082.14
813.203 4140 -1079.16
842.56799 4140 -1063.41
902.67999 4140 -1084.15
937.703 4140 -1071.01
984.53699 4140 -1072.67
1028.96 4140 -1067.26
1080.58 4140 -1068.28
1187.5601 4140 -1064.02
1244.03 4140 -1061.33
1282.4399 4140 -1042.5601
1371.15 4140 -1061.0601
1494.54 4140 -1046.49
1726.63 4140 -1028.51
2125.4199 4140 -1003.12
-1704.58 4140 -1065.14
-1597.3101 4140 -1052.24
-1562.16 4140 -1083.71
-1455.29 4140 -1065.24
-1388.61 4140 -1070.34
-1326.3 4140 -1074.61
-1265.77 4140 -1076.3
-1201.79 4140 -1073.23
-1151.39 4140 -1080.16
-1096.8199 4140 -1081.37
-1050.34 4140 -1085.88
-992.02002 4140 -1083.79
-948.20898 4140 -1088.39
-900.92798 4140 -1086.26
-814.75 4140 -1086.75
-771.74402 4140 -1083.1899
-728.93799 4140 -1079.42
-694.35303 4140 -1082.73
-669.565 4140 -1104.09
-660.12299 4140 -1147.7
-631.16199 4140 -1162.46
-593.33502 4140 -1159.79
-562.72998 4140 -1168.29
-529.46301 4140 -1171.95
-488.42899 4140 -1157.6801
-457.17499 4140 -1163.4
-423.548 4140 -1158.77
-389.72198 4140 -1158.45
-359.073 4140 -1158.64
-328.21399 4140 -1158.92
-297.311 4140 -1157.42
-267.535 4140 -1155.9399
-236.052 4140 -1149
-205.211 4140 -1143.74
-176.592 4140 -1143.1899
-148.17101 4140 -1147.22
-120.467 4140 -1143.17
-91.910797 4140 -1147.83
-64.229401 4140 -1147.7
-36.391499 4140 -1140.17
-7.4170499 4140 -1133.23
20.0825 4140 -1132.8199
47.4426 4140 -1129
73.868202 4140 -1122.3199
101.423 4140 -1117.16
128.534 4140 -1114.61
155.442 4140 -1110.42
183.545 4140 -1115.5
212.54601 4140 -1112.89
239.54401 4140 -1107.64
266.60501 4140 -1109.16
297.55301 4140 -1112.91
325.077 4140 -1105.1801
353.55801 4140 -1102.4399
384.612 4140 -1108.15
413.64301 4140 -1107.26
444.64999 4140 -1104.88
475.771 4140 -1106.55
504.75299 4140 -1098.04
534.98901 4140 -1093.1
555.76898 4140 -1068.33
625.14301 4140 -1072.62
661.02197 4140 -1074.74
709.00897 4140 -1091.13
743.40302 4140 -1088.64
779.67798 4140 -1083.66
811.94299 4140 -1073.22
841.17297 4140 -1057.5
947.57397 4140 -1079.3101
986.29102 4140 -1071.0601
1031.17 4140 -1065.48
1071.4 4140 -1055.16
1129.33 4140 -1059.47
1188.62 4140 -1063.21
1251.27 4140 -1066.33
1324.64 4140 -1075.0699
1387.74 4140 -1071.48
975.72498 4140 -737.76801
1436.65 4140 -1056.41
1512.49 4140 -1056.6
1609.05 4140 -1012.78
1715.83 4140 -1022.71
-1975.4301 4140 -1078.16
-1704.29 4140 -1041.83
-1616.38 4140 -1044.0601
-1475.2 4140 -1056.5
-1415.3101 4140 -1068.33
-1358.8101 4140 -1077.22
-1291.0699 4140 -1074.96
-1230.12 4140 -1078.1899
-1174.3 4140 -1079
-1118.64 4140 -1080.85
-1066.99 4140 -1080.46
-1013.94 4140 -1082.5699
-969.56 4140 -1086.9
-912.72302 4140 -1076.37
-878.32501 4140 -1088.28
-823.17297 4140 -1071.5699
-782.78003 4140 -1074.9399
-747.67499 4140 -1079.02
-712.63501 4140 -1083.08
-679.789 4140 -1092.53
-663.914 4140 -1126.4
-648.91699 4140 -1160.95
-611.46802 4140 -1162.21
-578.08801 4140 -1166.63
-542.64001 4140 -1165.35
-510.836 4140 -1168.74
-474.63101 4140 -1162.87
-439.69699 4140 -1156.75
-406.98801 4140 -1153.3
-373.36499 4140 -1150.17
-346.004 4140 -1157.65
-316.43799 4140 -1161.9301
-284.78101 4140 -1156.97
-253.603 4140 -1149.87
-223.06 4140 -1140.9
-193.491 4140 -1140.96
-166.681 4140 -1145.1801
-138.925 4140 -1144.35
-109.571 4140 -1147.78
-82.902397 4140 -1149.51
-54.910999 4140 -1143.1801
-26.2038 4140 -1143.7
0.93041098 4140 -1137.25
28.1203 4140 -1132.9
56.771 4140 -1124.3199
82.490799 4140 -1122.47
112.831 4140 -1123.6
137.495 4140 -1112.28
164.73199 4140 -1112.62
193.438 4140 -1116.62
220.50101 4140 -1108.53
248.62199 4140 -1110
277.181 4140 -1107.85
306.17499 4140 -1111.09
333.48199 4140 -1104.76
362.45801 4140 -1103.23
393.565 4140 -1106.6
424.38699 4140 -1108.27
451.76099 4140 -1102.54
487.11899 4140 -1110.35
513.53497 4140 -1098.9301
539.646 4140 -1086.0699
571.45599 4140 -1080.4301
605.23102 4140 -1074.52
636.487 4140 -1071.17
675.15698 4140 -1076.55
719.19397 4140 -1085.9399
753.90198 4140 -1081.7
793.388 4140 -1080.8101
829.16199 4140 -1073.9
873.41302 4140 -1076.17
910.75702 4140 -1070.49
965.78497 4140 -1080.88
1001.43 4140 -1066.88
1054.75 4140 -1072.15
1165.8101 4140 -1075.3101
1210.14 4140 -1064.1899
1327.42 4140 -1057.65
1367.89 4140 -1034.88
1463.59 4140 -1054.24
2109.9099 4140 -1034.78
-2096.4099 4140 -1062.42
-1981.86 4140 -1066.29
-1685.26 4140 -1072.34
-1569.1 4140 -1054.02
-1497.47 4140 -1060.14
-1430.58 4140 -1064.62
-1373.02 4140 -1074.53
-1302.22 4140 -1072.87
-1236.5601 4140 -1070.79
-1187.9 4140 -1077.83
-1131 4140 -1079.16
-1078.28 4140 -1079.46
-1031.11 4140 -1085.97
-978.771 4140 -1087.04
-931.70203 4140 -1085.48
-885.47101 4140 -1083.76
-799.74597 4140 -1082.65
-753.68597 4140 -1075.75
-718.08197 4140 -1079.78
-680.54199 4140 -1080.55
-664.66602 4140 -1113.74
-654.74597 4140 -1156.52
-621.53699 4140 -1162.8101
-585.414 4140 -1163.8101
-554.85699 4140 -1171.49
-521.67999 4140 -1175.16
-482.69 4140 -1164.42
-450.367 4140 -1166.58
-413.38501 4140 -1156.33
-381.43399 4140 -1156.73
-349.47501 4140 -1156.61
-318.97601 4140 -1156.3101
-290.604 4140 -1160.16
-258.608 4140 -1153.11
-228.061 4140 -1146.54
-198.19901 4140 -1140.4
-170.461 4140 -1140.58
-143.19501 4140 -1148.1
-114.034 4140 -1151.37
-85.980904 4140 -1148.54
-59.195301 4140 -1147.47
-31.2143 4140 -1144.3199
-3.1006801 4140 -1137
25.643 4140 -1132.71
52.4781 4140 -1124.53
79.676399 4140 -1126.1899
106.536 4140 -1122.46
134.58099 4140 -1113.65
162.23599 4140 -1116.78
189.33299 4140 -1112.76
217.192 4140 -1112.5
244.235 4140 -1107.39
272.17001 4140 -1107.03
301.06201 4140 -1111.45
328.46201 4140 -1104.4399
356.039 4140 -1101.91
387.26599 4140 -1102.1899
415.76401 4140 -1101.92
448.33899 4140 -1104.47
479.08801 4140 -1105.12
509.54599 4140 -1101.34
538.48602 4140 -1091.9399
560.41602 4140 -1071.55
596.27502 4140 -1072.95
630.46899 4140 -1075.01
667.62402 4140 -1076.24
711.203 4140 -1090.59
745.15503 4140 -1081.6801
783.07202 4140 -1081.52
814.72601 4140 -1071.42
848.06702 4140 -1059.03
903.08899 4140 -1075.66
945.91998 4140 -1072.11
992.69897 4140 -1073.3101
1042.78 4140 -1073.37
1084.12 4140 -1063.62
1190.1899 4140 -1059.95
1285.08 4140 -1038.9
1352.33 4140 -1040.02
1691.08 4140 -1063.13
-1978.66 4140 -1072.23
-1707.12 4140 -1037.1801
-1681.74 4140 -1077.85
-1574.76 4140 -1065.3101
-1494.48 4140 -1064.77
-1427.4 4140 -1070.14
-1368.22 4140 -1079.83
-1292.9301 4140 -1071.15
-1233.83 4140 -1074.3199
-1182.1899 4140 -1081.5
-1126.8101 4140 -1082.8199
-1069.22 4140 -1078.59
-1020.72 4140 -1086.84
-971.633 4140 -1085.04
-924.013 4140 -1085.47
-880.401 4140 -1086.6
-794.27502 4140 -1085.74
-752.12097 4140 -1083.55
-714.52502 4140 -1082.73
-680.716 4140 -1091.36
-662.72601 4140 -1121.58
-645.745 4140 -1155.28
-614.00201 4140 -1160.87
-580.203 4140 -1165.3
-544.22699 4140 -1167.1
-515.46301 4140 -1178.45
-474.854 4140 -1162.51
-442.01801 4140 -1160.95
-408.58499 4140 -1158.83
-377.259 4140 -1156.79
-344.32901 4140 -1153.1899
-315.953 4140 -1157.66
-285.23199 4140 -1156.08
-254.966 4140 -1150.08
-222.653 4140 -1140.47
-195.80499 4140 -1145.13
-168.161 4140 -1148.76
-138.84 4140 -1148.89
-108.811 4140 -1139.8199
-82.596703 4140 -1145.28
-55.222698 4140 -1143.17
-27.0802 4140 -1141.1801
2.1709599 4140 -1137.25
29.475201 4140 -1125.61
55.863602 4140 -1124.61
83.084602 4140 -1122.1801
112.787 4140 -1120.09
140.287 4140 -1112.4399
166.80299 4140 -1116.1
194.489 4140 -1111.87
221.81599 4140 -1107.25
249.97099 4140 -1108.9301
279.72699 4140 -1110.3101
306.586 4140 -1107.86
336.202 4140 -1102.89
364.86401 4140 -1102.4399
395.07401 4140 -1106.0601
425.27499 4140 -1103.38
457.49799 4140 -1104.5
489.33899 4140 -1109.64
517.10797 4140 -1096.4301
543.42102 4140 -1084.74
570.23102 4140 -1071.74
600.44098 4140 -1071.48
635.11603 4140 -1072.85
676.63397 4140 -1081.53
715.70099 4140 -1086.45
751.69397 4140 -1082.9301
790.29102 4140 -1081.53
820.55701 4140 -1066.96
855.58301 4140 -1060.6899
908.81201 4140 -1071.16
954.49103 4140 -1073.54
998.75897 4140 -1068.7
1047.4 4140 -1068.17
1093.55 4140 -1064.7
1157.67 4140 -1073.0699
1200.76 4140 -1062.35
1282.97 4140 -1027.97
1459.35 4140 -1059.67
1546.87 4140 -1066.25
1581.71 4140 -1034.55
1696.86 4140 -1053.89
1721.9301 4140 -1012.4
-2063.4099 4170 -1089.21
-1655.77 4170 -1095.28
-1550.97 4170 -1080.97
-1462.6 4170 -1073.03
-1395.5601 4170 -1078.12
-1323.47 4170 -1076.51
-1270.15 4170 -1085.41
-1210.66 4170 -1087.6899
-1154.6899 4170 -1089.79
-1099.49 4170 -1089.34
-1053.22 4170 -1094.22
-1000.32 4170 -1095.85
-946.724 4170 -1089.6801
-898.71503 4170 -1088.41
-859.67999 4170 -1094.1801
-818.508 4170 -1096.74
-769.22803 4170 -1085.29
-732.159 4170 -1089.3101
-691.96198 4170 -1084.86
-662.45697 4170 -1096.41
-651.034 4170 -1140.52
-628.34497 4170 -1164.83
-590.396 4170 -1161.85
-561.91498 4170 -1174.78
-528.31097 4170 -1177.95
-488.52399 4170 -1167.6801
-454.22501 4170 -1162.4
-418.84201 4170 -1158.62
-385.052 4170 -1151.84
-358.08801 4170 -1164.4301
-324.39899 4170 -1158.7
-294.215 4170 -1158.47
-265.70099 4170 -1160.98
-234.12601 4170 -1153.99
-202.94 4170 -1143.63
-173.68401 4170 -1140.85
-146.388 4170 -1148.21
-118.019 4170 -1146.9399
-88.857399 4170 -1149.0699
-61.873001 4170 -1150.59
-33.7034 4170 -1144
-5.8744402 4170 -1133.73
22.5539 4170 -1132.78
50.978699 4170 -1125.35
78.158096 4170 -1126.54
106.581 4170 -1119.6899
133.478 4170 -1117.3101
161.12601 4170 -1113.4
188.871 4170 -1110.05
216.838 4170 -1107.47
243.771 4170 -1106.72
272.94101 4170 -1111.48
301.27499 4170 -1103.88
328.436 4170 -1101.0601
356.45099 4170 -1097.04
385.70901 4170 -1095.85
418.25601 4170 -1101.25
448.883 4170 -1102.36
479.69901 4170 -1099.13
510.15399 4170 -1096.37
537.755 4170 -1082.26
561.414 4170 -1065.66
594.841 4170 -1068.3101
629.85498 4170 -1069.28
661.56299 4170 -1063.23
709.31799 4170 -1078.6801
746.64001 4170 -1080.05
779.25098 4170 -1070.7
815.29797 4170 -1063.12
851.23999 4170 -1056.49
899.56598 4170 -1062.61
953.40802 4170 -1073.5
991.948 4170 -1065.48
1033.0601 4170 -1055.27
1087.35 4170 -1059.25
1134.83 4170 -1052.47
1195.26 4170 -1055.74
1459.9301 4170 -1058.88
1591.41 4170 -1040.27
1627.0601 4170 -1005.63
2132.75 4170 -987.44598
-1715.1 4170 -1072.36
-1667.1899 4170 -1100.22
-1551.35 4170 -1079.98
-1488.59 4170 -1090.86
-1420.59 4170 -1094.38
-1353.95 4170 -1098.86
-1278.78 4170 -1089.17
-1212.62 4170 -1085.87
-1161.16 4170 -1093.5
-1101.92 4170 -1087.59
-1049.09 4170 -1088.14
-995.26099 4170 -1090.3101
-951.58398 4170 -1094.0699
-902.97198 4170 -1092.35
-860.28699 4170 -1094.34
-809.22198 4170 -1081.83
-769.38599 4170 -1084.26
-732.73499 4170 -1089.53
-691.69299 4170 -1084.4399
-664.742 4170 -1100.87
-654.82202 4170 -1144.98
-629.14001 4170 -1163.27
-591.66302 4170 -1161.2
-561.37903 4170 -1174.48
-526.78998 4170 -1173.7
-490.53101 4170 -1167.11
-455.22601 4170 -1164.97
-419.31201 4170 -1154.99
-386.70999 4170 -1153.66
-357.47101 4170 -1160.1801
-327.086 4170 -1159.76
-297.306 4170 -1158.72
-267.54401 4170 -1160.3
-235.37601 4170 -1148.89
-205.52299 4170 -1143.6801
-175.931 4170 -1143.04
-147.89 4170 -1147.51
-118.932 4170 -1146.6
-91.9907 4170 -1148.8199
-63.7556 4170 -1150.48
-34.752899 4170 -1147.72
-8.0883102 4170 -1140.72
19.159901 4170 -1133.09
48.037102 4170 -1128.48
74.7864 4170 -1122.26
102.97 4170 -1117.27
131.403 4170 -1118.05
159 4170 -1113.71
185.32001 4170 -1111.15
212.78799 4170 -1105.97
240.664 4170 -1104.0699
268.63501 4170 -1101.72
298.39301 4170 -1105.1801
325.22 4170 -1101.23
354.80099 4170 -1097.05
382.936 4170 -1096.5601
414.828 4170 -1098.54
445.27701 4170 -1099.51
476.39999 4170 -1100.5699
508.44901 4170 -1096.61
536.49597 4170 -1087.91
557.57599 4170 -1066.83
589.474 4170 -1060.71
621.23602 4170 -1059.27
659.55902 4170 -1063.89
702.638 4170 -1071.7
745.31897 4170 -1080.65
779.55298 4170 -1075.4301
813.41901 4170 -1064.87
912.60498 4170 -1083.99
935.28802 4170 -1057.15
987.10999 4170 -1061.4399
1031.62 4170 -1056.67
1133.21 4170 -1053.85
1187.37 4170 -1051.0699
1242.73 4170 -1049.73
1356.12 4170 -1035.9
1500.79 4170 -1037.5
1571.3199 4170 -1028.97
1721.66 4170 -1012.87
-2095.25 4170 -1064.71
-1886.95 4170 -1079.17
-1683.5 4170 -1075.09
-1577.08 4170 -1061.88
-1551.14 4170 -1099.41
-1444.97 4170 -1079.62
-1386.59 4170 -1090.04
-1307.58 4170 -1082.08
-1247.75 4170 -1083.46
-1196.8199 4170 -1090.6899
-1145.3101 4170 -1098.2
-1085.61 4170 -1093.33
-1030.61 4170 -1087.8199
-981.33197 4170 -1093.47
-936.854 4170 -1097.52
-886.43597 4170 -1090.39
-844.27301 4170 -1092.24
-799.75 4170 -1088.85
-759.62 4170 -1089.9
-719.33197 4170 -1086.15
-682.99402 4170 -1089.05
-658.51801 4170 -1111
-656.98297 4170 -1167.89
-614.401 4170 -1160.1
-581.284 4170 -1165.88
-551.01898 4170 -1174.13
-513.586 4170 -1168.08
-478.241 4170 -1166.25
-442.48801 4170 -1156.49
-408.64401 4170 -1152.97
-377.09201 4170 -1158.42
-347.92599 4170 -1161.77
-317.54401 4170 -1164.74
-287.439 4170 -1160.95
-257.112 4170 -1156.77
-224.668 4170 -1147.46
-195.569 4170 -1141.87
-166.76401 4170 -1141.38
-139.244 4170 -1149.6
-109.547 4170 -1147.53
-83.233902 4170 -1149.74
-55.596699 4170 -1150.91
-26.5389 4170 -1144.6899
0.61822802 4170 -1133.5
28.8613 4170 -1125.63
56.477001 4170 -1124.58
84.039902 4170 -1122.61
112.967 4170 -1118.8101
139.812 4170 -1116.03
167.81 4170 -1108.37
195.87399 4170 -1109.09
221.73 4170 -1103.7
250.763 4170 -1105.41
280.815 4170 -1109.51
307.996 4170 -1105.91
335.263 4170 -1098.74
364.064 4170 -1099.02
394.271 4170 -1096.26
425.216 4170 -1102.33
456.48401 4170 -1099.51
486.09201 4170 -1097.41
518.539 4170 -1097.13
545.94098 4170 -1084.6
567.09998 4170 -1062.36
600.61401 4170 -1065.65
636.48102 4170 -1066.52
674.97198 4170 -1071.0601
713.84601 4170 -1076.59
752.36902 4170 -1076.37
786.57898 4170 -1070.92
826.81403 4170 -1068.45
954.12201 4170 -1065.49
997.91602 4170 -1060.24
1041.88 4170 -1056.76
1087.5699 4170 -1049.6801
1199.86 4170 -1050.51
1287.4399 4170 -1022.36
1416.37 4170 -1016.71
1670.7 4170 -1026.3101
1737.6899 4170 -1010.22
-2002.6801 4170 -1096.58
-1677.02 4170 -1085.17
-1588.47 4170 -1084.72
-1498.84 4170 -1077.15
-1431.38 4170 -1082.3
-1372.21 4170 -1090.89
-1322.66 4170 -1106.16
-1234.95 4170 -1084.8101
-1178.49 4170 -1087
-1123.1 4170 -1089.9
-1070.41 4170 -1088.66
-1021.04 4170 -1096.12
-966.59302 4170 -1089.54
-929.30701 4170 -1102.61
-878.81097 4170 -1095.59
-833.31598 4170 -1092.77
-793.34998 4170 -1093.83
-746.974 4170 -1085.59
-711.388 4170 -1089.58
-676.974 4170 -1093.98
-655.10101 4170 -1119.11
-643.55701 4170 -1162.5
-606.56403 4170 -1163.65
-574.46301 4170 -1167.3
-542.39801 4170 -1173.1801
-504.146 4170 -1167.28
-468.28101 4170 -1160.86
-431.17099 4170 -1150.35
-401.883 4170 -1155.88
-373.431 4170 -1162.23
-342.21899 4170 -1163.46
-308.909 4170 -1154.12
-280.06699 4170 -1156.83
-249.21899 4170 -1155.4301
-217.099 4170 -1141.79
-190.14999 4170 -1142.03
-160.778 4170 -1141.74
-134.04601 4170 -1145.9399
-106.182 4170 -1152.12
-76.9618 4170 -1150.1801
-48.532299 4170 -1147.47
-21.794201 4170 -1141.54
5.5971699 4170 -1140.24
33.673599 4170 -1132.5
62.483002 4170 -1127.52
89.489799 4170 -1121.4399
117.9 4170 -1118.8101
144.29401 4170 -1112.4301
171.783 4170 -1112.0601
199.28101 4170 -1107.21
227.14799 4170 -1105.66
254.091 4170 -1107.48
282.85599 4170 -1106.16
312.05099 4170 -1105.29
338.83499 4170 -1101.83
368.17801 4170 -1097.38
396.06601 4170 -1091.89
428.702 4170 -1101.52
459.578 4170 -1098.49
490.41299 4170 -1099.87
520.203 4170 -1095.24
543.96997 4170 -1074.11
573.49103 4170 -1068.02
604.63501 4170 -1063.95
641.86603 4170 -1068.24
676.35199 4170 -1064.86
718.98297 4170 -1072.86
755.88702 4170 -1073.9
787.828 4170 -1063.48
826.78998 4170 -1061.8199
893.185 4170 -1091.99
916.34802 4170 -1064.0601
1001.67 4170 -1056.6899
1055.36 4170 -1061.71
1148.55 4170 -1049
1203.76 4170 -1046.41
1291.34 4170 -1017.44
1394.39 4170 -1045.39
1443.63 4170 -1029.73
1510.0699 4170 -1023.96
1633.0601 4170 -995.849
-1832.75 4170 -1086.3101
-1691.95 4170 -1061.75
-1550.67 4170 -1081.39
-1470.27 4170 -1079.9
-1411.09 4170 -1090.74
-1338.71 4170 -1087.09
-1269.29 4170 -1085.27
-1216.9 4170 -1092.7
-1160.38 4170 -1093.96
-1101.27 4170 -1089.3199
-1044.63 4170 -1084.11
-1000.54 4170 -1094.29
-956.74799 4170 -1098.1899
-907.25299 4170 -1096.92
-864.604 4170 -1099.21
-810.25702 4170 -1081.37
-774.63898 4170 -1087.89
-731.85999 4170 -1084.39
-693.57501 4170 -1084.12
-667.40198 4170 -1099.84
-657.06897 4170 -1143.11
-630.92499 4170 -1164.29
-597.57001 4170 -1168.86
-565.22498 4170 -1173.47
-529.46301 4170 -1171.95
-492.34299 4170 -1166.0699
-457.63199 4170 -1164.5601
-422.461 4170 -1153.84
-390.673 4170 -1159.1899
-361.431 4170 -1162.88
-329.58899 4170 -1157.75
-300.26801 4170 -1161.05
-268.81 4170 -1160.01
-236.73 4170 -1149.12
-207.03799 4170 -1143.15
-178.85201 4170 -1143.35
-150.567 4170 -1150.9399
-121.012 4170 -1142.36
-93.911003 4170 -1149.17
-66.689598 4170 -1146.8101
-37.553299 4170 -1147.14
-10.5144 4170 -1133.95
18.026699 4170 -1139.61
45.277302 4170 -1128.84
72.1278 4170 -1123.9399
99.268501 4170 -1117.1
126.957 4170 -1114.29
153.39101 4170 -1111.21
182.287 4170 -1107.85
210.328 4170 -1112.8
235.00999 4170 -1101.2
265.85501 4170 -1104.71
294.28101 4170 -1105.5
322.125 4170 -1102.92
349.56299 4170 -1099.26
378.52802 4170 -1098.35
406.16901 4170 -1092.7
439.495 4170 -1097.25
468.345 4170 -1095.87
500.30301 4170 -1096.23
529.28802 4170 -1086.71
554.39801 4170 -1073.55
585.724 4170 -1067.63
616.64697 4170 -1061.37
653.61603 4170 -1067.26
691.61102 4170 -1072.01
732.91302 4170 -1076.4301
764.64801 4170 -1067.6801
806.14001 4170 -1070.39
892.50403 4170 -1022.2
974.539 4170 -1063.52
1068.12 4170 -1058.84
1103.9399 4170 -1043.03
1162.09 4170 -1046.35
1242.1899 4170 -1063.87
1267.28 4170 -1034.26
1483.46 4170 -1043.5601
1543.9 4170 -1031
1711.91 4170 -1029.26
-2117.4199 4200 -1019.9
-1797.29 4200 -1037.01
-1705.42 4200 -1039.97
-1679.6801 4200 -1081.05
-1563.62 4200 -1062.14
-1499.79 4200 -1074.12
-1424.37 4200 -1073.34
-1351.27 4200 -1071.84
-1283.1801 4200 -1069.58
-1224.58 4200 -1072.75
-1167.5 4200 -1075.6899
-1117.92 4200 -1080.15
-1059.89 4200 -1077.97
-1001.83 4200 -1076.09
-956.78699 4200 -1080.86
-914.43201 4200 -1083.76
-871.89502 4200 -1085.75
-818.5 4200 -1075.77
-778.81897 4200 -1076.89
-736.58301 4200 -1073.62
-700.99402 4200 -1078.15
-676.81403 4200 -1099.0699
-667.67999 4200 -1142.74
-637.96301 4200 -1153.88
-600.71301 4200 -1156.27
-567.422 4200 -1160.17
-529.49298 4200 -1155.1801
-493.69 4200 -1150.83
-464.83301 4200 -1156.86
-426.65399 4200 -1145.9
-396.92599 4200 -1150.72
-365.992 4200 -1152.01
-337.54099 4200 -1160.4
-303.04401 4200 -1152.3199
-274.09299 4200 -1154.15
-241.492 4200 -1140.72
-211.248 4200 -1138.0601
-182.23199 4200 -1138.51
-156.74899 4200 -1147.09
-128.15401 4200 -1149.88
-98.632401 4200 -1149.02
-71.253098 4200 -1149.54
-42.899101 4200 -1147.7
-14.5728 4200 -1136.91
13.6817 4200 -1140.17
41.103199 4200 -1132.75
68.694901 4200 -1123.15
97.157402 4200 -1117.53
125.192 4200 -1117.76
153.159 4200 -1114.02
181.44099 4200 -1110.27
206.733 4200 -1105.33
236.314 4200 -1107.3101
262.62201 4200 -1103.17
293.267 4200 -1106.55
322.573 4200 -1106.7
351.07599 4200 -1102.97
379.66901 4200 -1101.66
409.25601 4200 -1100.09
443.07199 4200 -1104.4399
473.293 4200 -1102.45
504.57101 4200 -1099.23
529.15698 4200 -1083.4301
561.12903 4200 -1079.35
588.53497 4200 -1067.23
627.32501 4200 -1075.6899
664.55603 4200 -1077.85
702.67401 4200 -1083.3199
742.49799 4200 -1083.5
777.05603 4200 -1078.16
806.03699 4200 -1064.2
846.33301 4200 -1060.42
899.12799 4200 -1072.13
1032.33 4200 -1064.35
1083.9 4200 -1064.5601
1136.0699 4200 -1062.88
1207.87 4200 -1078.0601
1247.02 4200 -1058.6
1382.14 4200 -1062.35
1440.6801 4200 -1050.92
1517 4200 -1050.55
1694.55 4200 -1057.59
2104.97 4200 -1045.92
-1887.38 4200 -1048.88
-1695.71 4200 -1055.74
-1627.21 4200 -1070.02
-1534.92 4200 -1064.1899
-1472.92 4200 -1076.29
-1389.78 4200 -1068.83
-1340.38 4200 -1085.42
-1264.61 4200 -1076.5
-1200.62 4200 -1074.54
-1150.21 4200 -1081.42
-1095.9301 4200 -1082.27
-1039.54 4200 -1078.24
-993.11798 4200 -1083.8
-942.85602 4200 -1083.4399
-896.53101 4200 -1082.76
-853.758 4200 -1084.2
-806.37097 4200 -1077.41
-767.38 4200 -1078.9399
-724.53302 4200 -1076.0601
-695.43402 4200 -1087.6801
-671.55298 4200 -1108.73
-657.80701 4200 -1148.74
-624.85797 4200 -1155.35
-591.20898 4200 -1160.3101
-557.58801 4200 -1164.1
-519.12799 4200 -1154.9399
-484.71899 4200 -1153.28
-449.00699 4200 -1151.83
-416.72299 4200 -1149.8101
-386.004 4200 -1154.6899
-355.44199 4200 -1155.83
-324.01501 4200 -1151.27
-294.17499 4200 -1154.36
-261.32599 4200 -1147.62
-230.905 4200 -1142.91
-199.86301 4200 -1135.29
-174.74899 4200 -1152.0699
-144.509 4200 -1143.4
-118.208 4200 -1154.97
-89.151398 4200 -1148.8
-61.385601 4200 -1147.36
-32.774601 4200 -1144.28
-5.28969 4200 -1140.99
24.348101 4200 -1129.99
51.876301 4200 -1124.8
78.510902 4200 -1122.76
108.461 4200 -1120.01
134.825 4200 -1113.11
162.983 4200 -1113.38
190.216 4200 -1108.8
217.88901 4200 -1108.03
245.636 4200 -1106.5601
273.61899 4200 -1099.98
304.896 4200 -1111.1801
332.07401 4200 -1103.36
359.66199 4200 -1095.73
389.63599 4200 -1100.3
421.48401 4200 -1104.3
453.67499 4200 -1101.21
486.418 4200 -1106.29
513.229 4200 -1094.38
540.48102 4200 -1080.34
571.46399 4200 -1074.77
599.742 4200 -1066.14
636.90698 4200 -1071.21
677.54797 4200 -1080.37
719.21399 4200 -1085.33
756.79102 4200 -1083.95
789.98499 4200 -1076.17
829.17499 4200 -1074.52
872.64697 4200 -1075.83
912.05402 4200 -1069.0601
962.54602 4200 -1073.72
1002.3 4200 -1066.0601
1108.66 4200 -1068.87
1151 4200 -1058.17
1218 4200 -1066.98
1330.01 4200 -1054.39
1507.87 4200 -1083.02
1570.6801 4200 -1071.3199
-1720.13 4200 -1063.8
-1601.89 4200 -1045.26
-1537.9 4200 -1059.4399
-1468.14 4200 -1065.4399
-1409.86 4200 -1076.33
-1344.52 4200 -1080.29
-1255.91 4200 -1060.86
-1216.79 4200 -1080.08
-1154.99 4200 -1077.05
-1100.29 4200 -1077.13
-1054.29 4200 -1083.4399
-996.44501 4200 -1079.72
-952.323 4200 -1084.13
-905.95398 4200 -1082.0699
-858.79199 4200 -1080.86
-818.284 4200 -1082.21
-772.22803 4200 -1075.16
-732.91302 4200 -1076.4301
-697.59802 4200 -1080.65
-674.46698 4200 -1101.98
-663 4200 -1145.46
-629.65399 4200 -1152.17
-598.18903 4200 -1157.5699
-565.159 4200 -1166
-528.94098 4200 -1160.66
-492.453 4200 -1154.89
-456.37 4200 -1150.28
-422.729 4200 -1146.8199
-392.85199 4200 -1153.17
-361.12701 4200 -1153.02
-330.73499 4200 -1152.22
-300.27701 4200 -1155.88
-271.77399 4200 -1154.1801
-237.49699 4200 -1141.8101
-209.16499 4200 -1138.95
-180.797 4200 -1139.5
-152.86301 4200 -1146.61
-125.332 4200 -1150.1899
-96.062897 4200 -1148.49
-67.520203 4200 -1150.27
-40.073299 4200 -1147.55
-11.1255 4200 -1133.2
15.4586 4200 -1133.64
43.410999 4200 -1128.42
71.176697 4200 -1123.5
98.071701 4200 -1117.45
124.83 4200 -1114.53
153.73199 4200 -1113.6899
180.007 4200 -1111.01
207.008 4200 -1106.8101
234.94 4200 -1105.3101
263.01501 4200 -1106.16
292.586 4200 -1110.09
321.36499 4200 -1107.05
349.271 4200 -1103.55
377.35501 4200 -1099.8101
410.43701 4200 -1104.1899
439.08801 4200 -1101.46
473.25699 4200 -1107.36
502.552 4200 -1098.78
526.91302 4200 -1082.58
552.96899 4200 -1070.0699
587.31897 4200 -1073.3199
622.508 4200 -1074.15
654.92798 4200 -1072.02
700.55603 4200 -1085.88
739.104 4200 -1085.52
772.789 4200 -1080.91
807.02502 4200 -1070.35
838.57501 4200 -1059.5601
889.91101 4200 -1069.41
936.86298 4200 -1072.41
983.828 4200 -1073.66
1033.75 4200 -1073.41
1078.71 4200 -1068.75
1125.67 4200 -1062.99
1185.92 4200 -1065.47
1242.96 4200 -1063.35
1329.16 4200 -1084.16
1377.3 4200 -1068.22
1427.45 4200 -1052.05
1501.87 4200 -1053.46
-1971.09 4200 -1053.5699
-1804.87 4200 -1023.75
-1734.6899 4200 -1040.37
-1676.74 4200 -1062.4301
-1571.27 4200 -1049.89
-1508.36 4200 -1062.92
-1441.54 4200 -1067.9
-1374.09 4200 -1072.35
-1306.01 4200 -1069.4301
-1239.38 4200 -1067.91
-1189.0699 4200 -1076.53
-1127.85 4200 -1070.87
-1074.6801 4200 -1073.51
-1027.95 4200 -1077.9301
-973.38397 4200 -1075.73
-933.77301 4200 -1083.7
-884.81702 4200 -1082.36
-798.245 4200 -1077.54
-751.11902 4200 -1070.22
-713.26703 4200 -1071.27
-686.362 4200 -1087.8199
-678.15302 4200 -1130.73
-652.04797 4200 -1150.29
-616.27197 4200 -1153.72
-586.12 4200 -1162.05
-545.35303 4200 -1153.87
-514.19598 4200 -1156.6
-478.83301 4200 -1156
-442.22101 4200 -1146.41
-412.14899 4200 -1146.95
-381.672 4200 -1155.34
-348.535 4200 -1153.49
-317.78799 4200 -1148.34
-289.58301 4200 -1154.74
-256.03 4200 -1146
-226.073 4200 -1139.8
-197.60001 4200 -1136.96
-169.106 4200 -1144.3199
-140.089 4200 -1140.9301
-112.412 4200 -1147.76
-86.350304 4200 -1149.26
-57.330101 4200 -1147.8199
-28.219601 4200 -1136.9
-0.30891001 4200 -1132.75
26.7125 4200 -1125.6801
54.648899 4200 -1124.92
80.331596 4200 -1118.12
108.781 4200 -1116.97
136.039 4200 -1112.97
163.967 4200 -1113.74
191.873 4200 -1116.64
217.467 4200 -1104.29
245.938 4200 -1106.5
273.621 4200 -1103.84
303.90399 4200 -1107.5601
331.98901 4200 -1104.17
361.556 4200 -1103.53
390.42001 4200 -1103.47
419.84601 4200 -1100.91
451.76099 4200 -1102.54
484.608 4200 -1106.26
513.74701 4200 -1099.38
536.85699 4200 -1078.24
566.66302 4200 -1072.79
602.70898 4200 -1079.66
634.44098 4200 -1072.38
672.02698 4200 -1079.39
712.61499 4200 -1083.6899
747.37097 4200 -1079.84
786.60602 4200 -1078.34
825.93701 4200 -1076.38
869.729 4200 -1078.83
923.039 4200 -1091.54
949.755 4200 -1069.38
992.93903 4200 -1064.21
1046.7 4200 -1069.2
1218.63 4200 -1078.75
1337.7 4200 -1073.62
1510.36 4200 -1041.6899
1589.7 4200 -1042.88
-2483.6201 4200 -975.97699
-2078.0701 4200 -1060.97
-1707.12 4200 -1037.1801
-1681.45 4200 -1078.3
-1555.26 4200 -1053.98
-1493.87 4200 -1064.34
-1434.5 4200 -1076.08
-1353.6 4200 -1068.89
-1285.9 4200 -1067.1
-1226.25 4200 -1070.08
-1175.29 4200 -1077.55
-1120 4200 -1079.8
-1063.0601 4200 -1075.9
-1009.91 4200 -1077.09
-959.73102 4200 -1078.24
-916.49902 4200 -1082.01
-869.729 4200 -1078.83
-825.05603 4200 -1077.0601
-786.31201 4200 -1079.79
-741.09497 4200 -1072.03
-704.67499 4200 -1075.45
-681.86798 4200 -1096.53
-670.86298 4200 -1141.74
-642.83502 4200 -1157.47
-607.013 4200 -1158.34
-573.53802 4200 -1163.02
-540.41498 4200 -1166.39
-501.64301 4200 -1158.01
-467.79901 4200 -1155.12
-430.44101 4200 -1145.55
-402.48499 4200 -1153.55
-371.375 4200 -1154.75
-340.23901 4200 -1154.4
-309.259 4200 -1150.41
-279.612 4200 -1157.71
-248.36501 4200 -1146.92
-217.939 4200 -1141.12
-189.05901 4200 -1137.39
-161.089 4200 -1141.6899
-133.797 4200 -1149.24
-104.95 4200 -1156
-77.538696 4200 -1149.39
-48.395 4200 -1144.23
-20.4004 4200 -1133.3199
7.1378002 4200 -1137.98
35.1012 4200 -1128.7
63.166801 4200 -1123.23
89.271103 4200 -1118.6899
118.22 4200 -1116.01
145.47501 4200 -1112.02
173.52 4200 -1109.26
200.01801 4200 -1107.84
229.01199 4200 -1110.12
257.16699 4200 -1107.02
284.23901 4200 -1105.29
313.44 4200 -1109.0601
342.28699 4200 -1101.28
369.61401 4200 -1097.6899
401.74701 4200 -1102.85
431.66 4200 -1104.66
462.10901 4200 -1102.85
497.194 4200 -1106.15
521.67798 4200 -1090.66
548.30701 4200 -1076.11
578.367 4200 -1070.78
611.29498 4200 -1070.22
646.617 4200 -1071.51
686.94098 4200 -1081.53
724.98401 4200 -1081.1801
760.82202 4200 -1076.54
796.28497 4200 -1071.83
834.57703 4200 -1070.01
875.64697 4200 -1067.5699
963.65601 4200 -1064.98
1007.93 4200 -1060.4
1114.4301 4200 -1063.9301
1172.9 4200 -1068.3101
1216.6 4200 -1056.41
1333.35 4200 -1049.36
1478.04 4200 -1051.24
1546.88 4200 -1045.84
1706.84 4200 -1037.65
-2001.01 4230 -1029.9
-1907.49 4230 -1042.4301
-1703.72 4230 -1042.76
-1597.0601 4230 -1031.58
-1534.2 4230 -1045.8199
-1457.02 4230 -1047.1
-1398.88 4230 -1057.72
-1349.3101 4230 -1073.89
-1273.76 4230 -1066.4399
-1216.54 4230 -1068.64
-1154.46 4230 -1066.59
-1094.53 4230 -1063.34
-1049.09 4230 -1069.3101
-1001.9 4230 -1075
-956.45502 4230 -1080.48
-905.46301 4230 -1074.3199
-859.43402 4230 -1072.03
-816.33698 4230 -1070.51
-775.888 4230 -1071.6
-733.75403 4230 -1069.49
-706.74103 4230 -1086.34
-680.73199 4230 -1103.41
-671.39301 4230 -1146.9399
-635.66498 4230 -1149.73
-601.34302 4230 -1155.9399
-572.77197 4230 -1168.6899
-531.16998 4230 -1155.51
-499.03601 4230 -1158.05
-462.15399 4230 -1152
-427.27899 4230 -1145.67
-396.216 4230 -1150.7
-367.91 4230 -1155.86
-337.33401 4230 -1155
-306.327 4230 -1154.55
-272.69601 4230 -1145.49
-243.202 4230 -1139.59
-214.688 4230 -1140.98
-185.685 4230 -1146.0601
-156.841 4230 -1138.5
-129.381 4230 -1149.49
-100.098 4230 -1144.13
-71.147202 4230 -1142.79
-43.987598 4230 -1143.4
-16.119499 4230 -1136.64
11.7073 4230 -1129.6899
39.612499 4230 -1125.55
66.259102 4230 -1123.55
98.137398 4230 -1121.72
123.034 4230 -1114.98
151.30299 4230 -1111.75
179.047 4230 -1114.71
206.149 4230 -1107.22
234.562 4230 -1109.48
265.16901 4230 -1113.87
292.64899 4230 -1110.33
322.10901 4230 -1107.35
349.647 4230 -1103.6899
381.44901 4230 -1109.77
410.49301 4230 -1108.96
441.03201 4230 -1106.33
471.888 4230 -1103.3199
502.552 4230 -1098.78
528.992 4230 -1086.85
554.54199 4230 -1069.54
591.05298 4230 -1075.26
626.85101 4230 -1082.33
666.15002 4230 -1087.72
707.33197 4230 -1093.11
742.21503 4230 -1089.45
775.43402 4230 -1080.25
817.69397 4230 -1082.66
843.01398 4230 -1063.38
942.14899 4230 -1076.09
990.401 4230 -1076.11
1039.73 4230 -1076.67
1107.08 4230 -1092.6801
1150.62 4230 -1080.62
1211.66 4230 -1086.2
1251.27 4230 -1066.33
1331.23 4230 -1081.62
1461.4301 4230 -1074.63
1521.05 4230 -1064.4301
-1689.8 4230 -1018.48
-1613.83 4230 -1026.27
-1550.5 4230 -1040.91
-1464.36 4230 -1035.51
-1414.74 4230 -1052.83
-1357.96 4230 -1063.34
-1281.67 4230 -1056.53
-1223.9 4230 -1059.83
-1169.33 4230 -1063.3101
-1113.85 4230 -1064.54
-1061.23 4230 -1066.45
-1011.25 4230 -1066.21
-963.633 4230 -1073.75
-912.60303 4230 -1067.9301
-874.15698 4230 -1075.89
-829.315 4230 -1074.1
-786.87097 4230 -1070.71
-744.61603 4230 -1067.75
-709.32703 4230 -1073.58
-688.80402 4230 -1098.98
-677.95099 4230 -1143.08
-642.93103 4230 -1145.1
-608.34802 4230 -1151.7
-583.5 4230 -1169.52
-543.48499 4230 -1160.55
-505.85999 4230 -1155.63
-471.22198 4230 -1149.14
-436.14401 4230 -1147.4
-406.034 4230 -1148.59
-373.992 4230 -1149.96
-345.272 4230 -1152.91
-313.95599 4230 -1154.0601
-281.392 4230 -1147.24
-249.79401 4230 -1134.0699
-221.88699 4230 -1136.54
-192.474 4230 -1140.62
-165.207 4230 -1141.61
-136.16 4230 -1137.13
-108.249 4230 -1147.15
-79.473099 4230 -1145.5
-53.0751 4230 -1144.02
-24.1782 4230 -1136.49
4.6203399 4230 -1129.49
32.030102 4230 -1129.05
58.2911 4230 -1123.99
87.064796 4230 -1125.89
114.365 4230 -1117.41
142.17101 4230 -1112.7
170.039 4230 -1112.83
197.55701 4230 -1108.03
225.93401 4230 -1110.5
254.259 4230 -1108.21
283.19101 4230 -1112.52
310.845 4230 -1105.63
338.29999 4230 -1103.3
367.88501 4230 -1102.49
400.328 4230 -1112.14
430.362 4230 -1110.26
463.177 4230 -1111.34
491.741 4230 -1103.66
522.24103 4230 -1099.53
543.20398 4230 -1074.78
576.44702 4230 -1073.52
614.914 4230 -1083.41
649.25897 4230 -1081.89
693.22302 4230 -1094.72
729.32501 4230 -1091.51
765.83301 4230 -1086.77
807.323 4230 -1090.41
833.40997 4230 -1070.92
932.13098 4230 -1084.78
974.97198 4230 -1081.04
1024.3 4230 -1081.74
1118.29 4230 -1071.11
1178.01 4230 -1075.3199
1228.87 4230 -1067.0699
1314.61 4230 -1087.3
1362.42 4230 -1072.24
1434.5 4230 -1076.08
1680.5601 4230 -1079.6801
1706.27 4230 -1038.58
2045.22 4230 -1050.54
-2658.51 4230 -918.64203
-1878.67 4230 -1034.6801
-1724.96 4230 -1007.23
-1689.3 4230 -1042.8199
-1603.3101 4230 -1043.0699
-1521.21 4230 -1044.89
-1454.04 4230 -1050.38
-1386.97 4230 -1056.47
-1338.87 4230 -1072.16
-1264.0601 4230 -1063.61
-1201.63 4230 -1061.36
-1141.14 4230 -1058.9
-1093.26 4230 -1065
-1036.74 4230 -1062.5
-988.55103 4230 -1069.99
-936.98602 4230 -1064.3199
-897.15601 4230 -1072.15
-845.90997 4230 -1061.08
-805.02698 4230 -1065.28
-766.539 4230 -1066.01
-724.62799 4230 -1063.01
-698.34601 4230 -1079.87
-684.16699 4230 -1115.09
-663.37402 4230 -1144.67
-628.94098 4230 -1147.15
-598.13098 4230 -1155.92
-565.32703 4230 -1162.3101
-527.28699 4230 -1156.1899
-490.37399 4230 -1150.88
-455.508 4230 -1141.74
-425.004 4230 -1146.25
-395.43701 4230 -1151.49
-363.37799 4230 -1148.12
-333.17899 4230 -1148.92
-303.85901 4230 -1151.59
-271.689 4230 -1142.64
-242.269 4230 -1139.79
-210.964 4230 -1134.8101
-185.099 4230 -1146.4
-154.944 4230 -1138.5
-128.849 4230 -1144.77
-99.777496 4230 -1147.67
-71.861801 4230 -1139.24
-43.9972 4230 -1143.65
-16.386101 4230 -1133.63
10.1984 4230 -1133.2
39.568501 4230 -1124.3
64.990097 4230 -1122.87
92.364998 4230 -1122.71
121.962 4230 -1110.8199
149.853 4230 -1112.45
178.382 4230 -1118.36
205.362 4230 -1106.35
232.69501 4230 -1109.61
260.715 4230 -1107.22
290.76901 4230 -1110.5699
319.71701 4230 -1107.01
347.465 4230 -1104.12
379.47101 4230 -1109.92
408.289 4230 -1109.51
441.09201 4230 -1110.88
473.457 4230 -1116.24
500.56699 4230 -1100.78
528.47101 4230 -1091.83
557.11798 4230 -1081.71
587.771 4230 -1077.63
620.07599 4230 -1076.71
659.69397 4230 -1085.8101
701.823 4230 -1096.36
738.172 4230 -1093.1
773.45203 4230 -1088.73
819.40503 4230 -1096.0699
853.617 4230 -1084.63
941.51001 4230 -1084.28
980.56 4230 -1075.97
1034.4301 4230 -1081.76
1080.04 4230 -1077.6899
1133.6 4230 -1077.51
1187.85 4230 -1076.02
1238.3101 4230 -1068.77
1324.72 4230 -1089.59
1430.09 4230 -1064.86
1683.5 4230 -1075.09
2092.6299 4230 -1069.85
-1863.38 4230 -1032.89
-1697.14 4230 -1053.4301
-1580.79 4230 -1036.41
-1500.87 4230 -1036.95
-1433.45 4230 -1043.85
-1384.26 4230 -1059.1801
-1314.61 4230 -1058.04
-1261.4399 4230 -1066.71
-1191.9 4230 -1059.15
-1142.63 4230 -1066.1
-1088.65 4230 -1068.64
-1034.13 4230 -1063.3
-986.33801 4230 -1071.7
-938.03198 4230 -1071.39
-894.815 4230 -1074.11
-844.17297 4230 -1062.46
-806.71503 4230 -1069.33
-764.93903 4230 -1067.47
-723.46802 4230 -1063.8
-700.17401 4230 -1084.64
-685.474 4230 -1119.28
-661.55402 4230 -1140.8101
-624.78601 4230 -1144.01
-594.03302 4230 -1151.84
-561.22198 4230 -1157.08
-526.76001 4230 -1156.7
-491.31601 4230 -1150.48
-455.64801 4230 -1145.72
-423.12799 4230 -1146.9399
-392.60101 4230 -1151.41
-361.737 4230 -1148.37
-330.013 4230 -1148.53
-302.66199 4230 -1150.87
-270.13101 4230 -1143.01
-238.752 4230 -1136.95
-210.097 4230 -1138.78
-182.32001 4230 -1143.05
-154.515 4230 -1142.35
-126.406 4230 -1145.55
-98.247498 4230 -1144.54
-69.391403 4230 -1139.64
-41.6861 4230 -1140.24
-13.9067 4230 -1133.16
12.6706 4230 -1133.1801
40.047798 4230 -1120.53
68.082298 4230 -1123.1899
98.159203 4230 -1121.96
125.018 4230 -1110.74
151.40401 4230 -1112.49
180.55701 4230 -1118.27
207.172 4230 -1106.01
235.11501 4230 -1109.1
263.57999 4230 -1109.88
292.10699 4230 -1110.73
321.737 4230 -1107.2
349.04501 4230 -1103.88
381.146 4230 -1109.88
412.66299 4230 -1112.96
441.487 4230 -1110.99
475.38101 4230 -1115.7
500.86801 4230 -1100.64
525.95001 4230 -1083.6
556.23297 4230 -1077.1
586.49402 4230 -1073.2
626.97699 4230 -1082.54
665.521 4230 -1088.7
705.841 4230 -1094.0699
744.71503 4230 -1094.4
780.67102 4230 -1088.8
824.177 4230 -1091.86
860.73297 4230 -1086.34
945.21698 4230 -1081.38
988.80798 4230 -1077.91
1089.83 4230 -1077.42
1198.2 4230 -1076.5
1330.05 4230 -1083.0699
1468.89 4230 -1081.35
1566.63 4230 -1096.96
1689.92 4230 -1064.97
2099.5901 4230 -1056.13
-2110.7 4230 -1033.74
-1996.22 4230 -1039.17
-1688.73 4230 -1043.75
-1592.26 4230 -1038.97
-1521.13 4230 -1045.4399
-1452.6899 4230 -1051.8199
-1386.77 4230 -1056.3101
-1316.34 4230 -1055.89
-1256.98 4230 -1058.8199
-1201.8199 4230 -1061.53
-1146.09 4230 -1063.49
-1087.3101 4230 -1060.36
-1041.63 4230 -1065.77
-985.69098 4230 -1065.15
-940.62 4230 -1068.45
-899.12799 4230 -1072.13
-808.76501 4230 -1068.41
-766.539 4230 -1066.01
-725.505 4230 -1061.8101
-701.51599 4230 -1083.47
-688.34998 4230 -1117.8
-668.76398 4230 -1148.1899
-629.59003 4230 -1145.37
-599.591 4230 -1154.88
-567.435 4230 -1161
-530.33099 4230 -1155.35
-493.39499 4230 -1150.14
-458.36499 4230 -1144.37
-426.07999 4230 -1145.3101
-396.379 4230 -1151.17
-365.28799 4230 -1151.97
-335.48099 4230 -1152.15
-304.30099 4230 -1151.99
-274.25699 4230 -1145.12
-241.799 4230 -1136.05
-211.354 4230 -1133.46
-184.405 4230 -1138.16
-156.106 4230 -1142.38
-127.807 4230 -1141.11
-100.722 4230 -1144.0699
-72.953201 4230 -1141.67
-45.5779 4230 -1136.34
-17.3174 4230 -1133.87
10.4703 4230 -1129.2
37.455502 4230 -1125.38
64.128403 4230 -1123.92
92.017899 4230 -1122.23
118.696 4230 -1114.7
147.11301 4230 -1115.09
174.408 4230 -1114.9399
202.065 4230 -1110.52
229.51601 4230 -1109.51
257.88199 4230 -1111.48
286.65201 4230 -1112.15
314.64999 4230 -1108.72
343.70099 4230 -1104.77
373.23099 4230 -1105.4399
404.18201 4230 -1110.48
434.38699 4230 -1108.96
464.78799 4230 -1110.9399
495.04901 4230 -1102.1801
521.867 4230 -1090.29
546.88501 4230 -1077.6801
582.94397 4230 -1079.96
614.271 4230 -1075.4301
657.453 4230 -1087.46
696.98199 4230 -1094.7
731.26801 4230 -1089.91
767.17798 4230 -1084.9
809.99902 4230 -1089.05
833.07397 4230 -1063.89
890.84698 4230 -1085.5
942.797 4230 -1091.76
981.987 4230 -1083.46
1077.99 4230 -1079.75
1125.0601 4230 -1075.25
1185.76 4230 -1079.4301
1247.9399 4230 -1083.62
1322.64 4230 -1092.12
1355.73 4230 -1065.78
1452.1899 4230 -1086.25
1503.85 4230 -1071.45
1681.15 4230 -1078.76
-1853.72 4260 -1050.12
-1712.47 4260 -1028.3199
-1615.16 4260 -1024.64
-1551.92 4260 -1038.8
-1473.99 4260 -1040.51
-1414.62 4260 -1052.15
-1342.91 4260 -1052.15
-1281.76 4260 -1056.02
-1212.46 4260 -1050.5
-1168.12 4260 -1062.79
-1108.6801 4260 -1060.1801
-1060.9399 4260 -1066.74
-1011.01 4260 -1067.13
-964.42603 4260 -1074.05
-911.40503 4260 -1068.3
-855.99902 4260 -1052.95
-824.92603 4260 -1070.22
-786.43903 4260 -1071.95
-742.71899 4260 -1069.38
-707.72498 4260 -1074.34
-686.77502 4260 -1099.0699
-671.539 4260 -1134.38
-643.88098 4260 -1149.73
-606.54401 4260 -1152.09
-579.15302 4260 -1166.38
-539.47302 4260 -1157.73
-503.05399 4260 -1155.22
-469.46701 4260 -1154.71
-436.62299 4260 -1151.5
-402.81699 4260 -1149.46
-372.42999 4260 -1149.42
-341.49799 4260 -1154.03
-312.00201 4260 -1154.33
-279.00699 4260 -1148.34
-247.763 4260 -1139.63
-217.668 4260 -1136.34
-188.097 4260 -1129.7
-161.436 4260 -1141.89
-133.739 4260 -1148.74
-105.433 4260 -1147.42
-75.755096 4260 -1141.49
-49.147999 4260 -1139.9399
-19.839001 4260 -1136.58
8.0049896 4260 -1128.97
36.195702 4260 -1124.42
63.7794 4260 -1123.1899
90.7332 4260 -1121.59
119.511 4260 -1110.84
147.91901 4260 -1116.49
174.674 4260 -1114.65
203.783 4260 -1114.78
231.229 4260 -1108.64
260.44 4260 -1114.22
289.254 4260 -1110.96
317.13699 4260 -1108.27
346.54999 4260 -1108.6
376.68799 4260 -1107.7
407.59799 4260 -1109.5
437.80301 4260 -1107.88
471.60199 4260 -1111.87
500.20901 4260 -1104.79
525.62097 4260 -1088.21
555.69 4260 -1083.29
584.56403 4260 -1074.54
622.66101 4260 -1079.84
663.40399 4260 -1090.5699
706.69397 4260 -1100.66
741.44702 4260 -1096.01
775.83698 4260 -1085.8
817.74701 4260 -1090.13
837.12903 4260 -1060.7
898.117 4260 -1080.47
947.58398 4260 -1088.27
987.92499 4260 -1078.72
1042.4 4260 -1084.16
1093.45 4260 -1085.13
1136.6899 4260 -1072.8
1198.46 4260 -1077.3199
1242.77 4260 -1063.1899
1308.8199 4260 -1066.38
1393.2 4260 -1081.17
1460.4399 4260 -1075.13
1521.98 4260 -1065.71
-2132.0701 4260 -1029.8199
-1896.1801 4260 -1032.89
-1704.29 4260 -1041.83
-1606.79 4260 -1037.24
-1516.79 4260 -1032.75
-1457.76 4260 -1045.22
-1398.88 4260 -1057.72
-1287.08 4260 -1023.22
-1261.1 4260 -1054.6801
-1204.35 4260 -1056.77
-1149.9301 4260 -1060.08
-1095.11 4260 -1062.74
-1048.97 4260 -1068.02
-997.93402 4260 -1070.15
-952.56799 4260 -1074.91
-902.01801 4260 -1069.05
-818.77301 4260 -1074.3101
-772.51801 4260 -1067.5601
-733.763 4260 -1068.88
-701.73901 4260 -1077.36
-680.995 4260 -1103.84
-667.36798 4260 -1142.92
-635.302 4260 -1149.0699
-601.34302 4260 -1155.9399
-569.289 4260 -1163.99
-533.47302 4260 -1158.85
-495.40399 4260 -1153.08
-460.35199 4260 -1148.42
-427.19199 4260 -1145.4301
-394.48001 4260 -1143.63
-364.16501 4260 -1147.34
-336.14401 4260 -1155.6
-304.31299 4260 -1155.86
-271.20401 4260 -1141.99
-240.457 4260 -1137.36
-212.11 4260 -1134.08
-184.11 4260 -1142.26
-154.894 4260 -1142.8
-126.856 4260 -1146.75
-99.084602 4260 -1139.7
-69.702202 4260 -1139.62
-41.549099 4260 -1136.49
-14.2252 4260 -1133.91
13.2007 4260 -1125.67
40.2085 4260 -1125.03
69.598297 4260 -1122.85
98.661499 4260 -1120.67
123.835 4260 -1113.89
151.944 4260 -1114.1899
181.12601 4260 -1117.92
208.16499 4260 -1109.64
235.589 4260 -1112.84
263.508 4260 -1110.9301
293.75 4260 -1110.8199
320.94601 4260 -1108.99
350.327 4260 -1106.88
381.00601 4260 -1110.46
412.69699 4260 -1108.41
442.909 4260 -1110.16
476.13199 4260 -1111.5699
504.216 4260 -1102.41
528.20398 4260 -1082.23
559.52698 4260 -1081.3101
591.94897 4260 -1076.1899
627.05701 4260 -1083.36
668.98602 4260 -1093.02
709.88501 4260 -1097.71
742.35498 4260 -1089.66
781.55701 4260 -1088.78
816.66302 4260 -1083.75
861.495 4260 -1086.6899
911.435 4260 -1093.45
953.90601 4260 -1090.72
1050.15 4260 -1087.46
1096.11 4260 -1082.4399
1155.3101 4260 -1086.21
1200.03 4260 -1075.1899
1317.26 4260 -1070.27
1410.29 4260 -1091.35
1468.89 4260 -1081.35
1530.76 4260 -1070.61
1690.5 4260 -1064.05
2100.1599 4260 -1054.98
-1587.33 4260 -1025.91
-1516.3 4260 -1033.02
-1457.96 4260 -1045.36
-1399.4301 4260 -1055.75
-1314.37 4260 -1044.33
-1262.54 4260 -1052.96
-1205.96 4260 -1056.4399
-1156.23 4260 -1063.5601
-1096.77 4260 -1060.3
-1050.95 4260 -1067.13
-993.62097 4260 -1064.95
-955.07703 4260 -1073.01
-903.66803 4260 -1068.64
-889.64301 4260 -1102.92
-818.23999 4260 -1069.37
-775.86401 4260 -1065.4399
-736.37701 4260 -1067.6899
-704.06799 4260 -1076.4399
-687.67603 4260 -1105.87
-670.92102 4260 -1141.13
-637.37299 4260 -1147.64
-603.99597 4260 -1152.58
-574.901 4260 -1161.79
-537.47302 4260 -1156.73
-501.65701 4260 -1152.01
-469.27899 4260 -1154.25
-434.44299 4260 -1148.58
-401.64099 4260 -1145.11
-370.625 4260 -1150.26
-340.88901 4260 -1150.8199
-310.53699 4260 -1152.65
-278.06201 4260 -1144.45
-246.29401 4260 -1135.85
-218.33501 4260 -1136.47
-189.674 4260 -1141.09
