# .PCD v0.7 - Point Cloud Data file format
VERSION 0.7
FIELDS x y z
SIZE 4 4 4
TYPE F F F
COUNT 1 1 1
WIDTH 1976
HEIGHT 1
VIEWPOINT 0 0 0 1 0 0 0
POINTS 1976
DATA ascii
464.495 1470 -951.69598
489.43799 1470 -943.33899
515.71002 1470 -936.37799
540.77802 1470 -933.125
574.89398 1470 -939.867
623.29602 1470 -965.54602
698.164 1470 -1027.2
728.284 1470 -1018.08
755.60602 1470 -1003.29
794.58502 1470 -1005.1
808.29401 1470 -969.177
867.60699 1470 -991.49597
880.40399 1470 -959.21503
944.88202 1470 -980.59198
988.93597 1470 -978.20599
1023.02 1470 -963.41199
1060.5 1470 -950.698
1087.51 1470 -929.33197
1135.59 1470 -923.17999
1168.1899 1470 -902.98297
1197.49 1470 -879.04401
1244.6899 1470 -868.51001
1291.53 1470 -853.83197
1326.9399 1470 -830.67401
1384.95 1470 -822.93799
1412.36 1470 -792.98499
1452.38 1470 -769.20099
1479.95 1470 -736.86902
1416.2 1470 -661.32501
1522.29 1470 -666.35999
-1987.46 1500 -1124.45
-1877.66 1500 -1124.73
-1563.53 1500 -1101.8
-1464.36 1500 -1087.9
-1404.02 1500 -1099.41
-1339.01 1500 -1101.34
-1263.92 1500 -1092.67
-1198.3 1500 -1089.0601
-1136.33 1500 -1086.61
-1080.98 1500 -1086.3
-1023.71 1500 -1082.3
-967.88599 1500 -1079.67
-921.211 1500 -1078
-870.55402 1500 -1072.05
-825.68903 1500 -1071.21
-781.86401 1500 -1066.9399
-736.58301 1500 -1061.16
-696.59802 1500 -1056.8199
-654.60797 1500 -1050.78
-618.97601 1500 -1050.16
-584.69299 1500 -1052.78
-551.36798 1500 -1051.45
-520.396 1500 -1055.99
-479.31299 1500 -1035.99
-449.62799 1500 -1041.05
-415.901 1500 -1034.26
-387.16 1500 -1031.22
-359.02701 1500 -1032.62
-332.22601 1500 -1037.87
-326.64899 1500 -1109.41
-300.133 1500 -1127.49
-276.50201 1500 -1144.83
-239.00101 1500 -1115.4301
-207.291 1500 -1101.67
-187.27901 1500 -1138.2
-158.875 1500 -1141.75
-128.17999 1500 -1130.51
-100.662 1500 -1136.3
-71.3433 1500 -1111.71
-44.305801 1500 -1119.87
-16.5282 1500 -1101.88
11.0435 1500 -1094.4399
38.365002 1500 -1065.3101
63.1231 1500 -1046.1
88.014198 1500 -1035.27
114.866 1500 -1028.1
138.67999 1500 -1012.8
162.69901 1500 -1005.93
187.83701 1500 -1001.28
212.845 1500 -996.01202
235.231 1500 -984.539
261.039 1500 -986.03198
286.69601 1500 -984.60901
312.293 1500 -980.20398
336.90399 1500 -977.57397
361.84799 1500 -969.41901
384.91299 1500 -960.22498
420.08401 1500 -974.83899
437.198 1500 -952.45099
463.806 1500 -948.97198
489.64401 1500 -938.72198
515.84497 1500 -936.01898
543.44598 1500 -931.86298
582.66803 1500 -943.30499
632.32599 1500 -973.69702
694.44897 1500 -1013.39
720.35999 1500 -1000.07
762.57703 1500 -1003.98
802.27502 1500 -1006.34
814.56201 1500 -969.146
875.896 1500 -992.19897
895.69702 1500 -967.89899
953.23999 1500 -981.20203
998.63898 1500 -979.755
1036.41 1500 -965.93903
1064.97 1500 -945.315
1101.47 1500 -931.43298
1139.86 1500 -917.90503
1177.97 1500 -901.34003
1218.17 1500 -882.51599
1257.4399 1500 -863.71002
1296.4 1500 -846.422
1342.73 1500 -829.896
1390.75 1500 -813.60303
1424.3 1500 -786.96503
1458.47 1500 -759.22998
1404.4399 1500 -685.94
1509.33 1500 -692.82001
-1985.88 1500 -1125.7
-1930.3199 1500 -1156.99
-1799.96 1500 -1139.8101
-1562.4301 1500 -1102.9399
-1447.41 1500 -1075.92
-1396.24 1500 -1093.9301
-1337.61 1500 -1102.64
-1267.52 1500 -1098.8101
-1195.96 1500 -1090.51
-1135.85 1500 -1086.75
-1074.86 1500 -1082.51
-1024.6899 1500 -1082.75
-968.93597 1500 -1079.0699
-919.974 1500 -1077.75
-876.604 1500 -1081.3101
-825.80103 1500 -1069.55
-781.58502 1500 -1069
-734.73602 1500 -1057.27
-692.82202 1500 -1054.22
-654.784 1500 -1049.78
-619.42102 1500 -1049.6
-583.60999 1500 -1048.8101
-551.13501 1500 -1051.01
-519.93201 1500 -1052.87
-479.103 1500 -1035.54
-450.94699 1500 -1040.21
-417.68701 1500 -1032.1899
-387.95099 1500 -1033.3199
-358.80099 1500 -1029.25
-332.68301 1500 -1039.3
-327.92999 1500 -1109.29
-302.70401 1500 -1126.02
-277.06699 1500 -1144.4399
-240.87801 1500 -1115.28
-208.74001 1500 -1097.83
-188.78999 1500 -1137.6899
-159.875 1500 -1137.5699
-130.868 1500 -1129.4399
-102.814 1500 -1139.37
-73.801598 1500 -1112.05
-47.3913 1500 -1120.5
-18.136999 1500 -1108.35
9.2167997 1500 -1090.21
35.5844 1500 -1069.16
59.884499 1500 -1049.54
85.4571 1500 -1038.74
111.97 1500 -1022.39
136.33701 1500 -1012.11
161.093 1500 -1006.44
186.244 1500 -1001.84
210.696 1500 -993.91302
234.46201 1500 -983.69397
259.31201 1500 -984.93597
285.492 1500 -985.47998
310.845 1500 -979.35303
335.47601 1500 -975.15802
361.32001 1500 -969.61603
383.418 1500 -960.28497
417.37399 1500 -972.19501
437.30301 1500 -955.42798
464.13501 1500 -949.646
489.09201 1500 -942.67297
516.23401 1500 -935.51801
542.039 1500 -934.12701
576.80603 1500 -937.81403
623.81403 1500 -964.61499
697.02899 1500 -1022.52
726.72601 1500 -1011.81
757.57599 1500 -1003.06
806.138 1500 -1015.73
809.08698 1500 -968.51599
869.242 1500 -991.72601
881.98602 1500 -956.74103
947.16699 1500 -980.82001
988.04199 1500 -974.13
1029.13 1500 -964.93903
1061.84 1500 -950.33002
1094.04 1500 -931.30603
1141.9399 1500 -923.69202
1174.52 1500 -903.78699
1203.77 1500 -880.62598
1253.4301 1500 -872.58002
1297.42 1500 -856.70898
1338.61 1500 -837.47302
1385.63 1500 -821.80499
1418.9 1500 -795.63898
1453.03 1500 -768.526
1456.6801 1500 -725.28101
1514.92 1500 -662.638
-1948.16 1500 -1126.1899
-1842.29 1500 -1126.2
-1732.3 1500 -1118.9301
-1544.52 1500 -1108.7
-1470.25 1500 -1114.21
-1370.62 1500 -1093.29
-1307.0601 1500 -1096.76
-1246.71 1500 -1097.5601
-1176.11 1500 -1089.5699
-1109.1899 1500 -1080.53
-1057.54 1500 -1080.28
-1003.81 1500 -1081.76
-950.09198 1500 -1077.4301
-902.823 1500 -1076.54
-853.70203 1500 -1070.85
-809.65002 1500 -1068.37
-766.97601 1500 -1066.62
-725.49799 1500 -1062.42
-681.935 1500 -1053.86
-645.755 1500 -1055.0699
-607.646 1500 -1049.83
-572.448 1500 -1049.53
-537.203 1500 -1044.4399
-507.06699 1500 -1050.53
-468.263 1500 -1031.98
-443.905 1500 -1049.75
-407.00601 1500 -1032.42
-377.897 1500 -1030.39
-349.483 1500 -1033.25
-325.10999 1500 -1043.01
-318.18799 1500 -1116.55
-294.61499 1500 -1132.8199
-269.66 1500 -1150.83
-230.22301 1500 -1109.87
-200.355 1500 -1106.25
-179.20399 1500 -1139.49
-149.823 1500 -1130.87
-121.044 1500 -1133.8101
-93.555 1500 -1129.63
-62.217899 1500 -1111.76
-36.4245 1500 -1112.65
-7.7284698 1500 -1089.97
19.0842 1500 -1093.33
45.024899 1500 -1064.55
69.683197 1500 -1045.6801
96.401299 1500 -1039.79
119.204 1500 -1019.05
143.99001 1500 -1010.54
169.089 1500 -1005.38
194.209 1500 -1000.58
217.62 1500 -995.74701
241.73 1500 -983.22101
267.76099 1500 -983.19098
291.66599 1500 -975.84497
315.987 1500 -976.12903
343.36099 1500 -976.38501
367.83301 1500 -966.89697
388.21301 1500 -951.88
422.79001 1500 -966.578
443.28699 1500 -952.66602
470.897 1500 -947.70697
494.76199 1500 -939.14502
523.42499 1500 -935.23999
551.18903 1500 -931.08197
594.59698 1500 -955.02802
679.08502 1500 -1033.9301
699.13 1500 -1009.55
728.99902 1500 -999.36401
776.07501 1500 -1012.54
810.53601 1500 -1004.84
818.74103 1500 -966.60101
882.93903 1500 -991.96899
899.74103 1500 -963.79901
961.89697 1500 -980.43701
1003.89 1500 -975.81201
1039.83 1500 -962.258
1069.58 1500 -941.61102
1101.9399 1500 -923.10602
1148.9 1500 -915.414
1180.9 1500 -895.43597
1220.7 1500 -880.29498
1265.3101 1500 -865.05603
1304.11 1500 -847.40601
1345.8199 1500 -827.75098
1391.87 1500 -810.69501
1432.8 1500 -787.078
1460.8 1500 -756.90503
1405.5601 1500 -683.64099
1510.05 1500 -690.65802
1542.17 1500 -660.08099
-1950.13 1500 -1123.78
-1537.1801 1500 -1099.63
-1464.6899 1500 -1104.98
-1383.01 1500 -1095.79
-1316.77 1500 -1098.79
-1248.8101 1500 -1095.17
-1184.85 1500 -1092.27
-1128.89 1500 -1092.54
-1069.01 1500 -1087.24
-1007.56 1500 -1079.29
-958.88599 1500 -1079.66
-911.84198 1500 -1077.11
-864.06799 1500 -1076
-817.03699 1500 -1068.4
-773.97803 1500 -1067.74
-732.68103 1500 -1062.95
-690.09601 1500 -1055.71
-652.16803 1500 -1055.8199
-613.91803 1500 -1051.39
-580.79199 1500 -1049.8
-547.34698 1500 -1052.14
-515.75598 1500 -1053.8101
-474.681 1500 -1032.62
-450.41299 1500 -1049.15
-413.935 1500 -1032.62
-384.73401 1500 -1031.59
-354.88101 1500 -1034.3101
-329.86499 1500 -1037.3101
-325.185 1500 -1114.53
-298.53101 1500 -1127.65
-273.633 1500 -1145.26
-237.358 1500 -1112.2
-206.94299 1500 -1098.17
-184.44501 1500 -1138.4
-157.87199 1500 -1141.38
-126.611 1500 -1130.4301
-101.326 1500 -1140.26
-69.5242 1500 -1111.83
-42.968899 1500 -1116.92
-15.4131 1500 -1108.14
10.4394 1500 -1093.7
36.459099 1500 -1069.13
62.746498 1500 -1049.38
87.781197 1500 -1032.53
112.806 1500 -1022.29
138.37 1500 -1012.59
162.739 1500 -1006.17
186.97501 1500 -1004.24
210.606 1500 -997.51001
234.157 1500 -984.79498
258.76001 1500 -986.11499
285.89999 1500 -985.88202
310.42099 1500 -980.79797
335.98599 1500 -975.77502
360.70401 1500 -969.57898
381.539 1500 -958.612
408.41699 1500 -957.80902
435.27399 1500 -954.43103
465.17999 1500 -954.42102
487.26401 1500 -944.18201
514.56799 1500 -936.72101
541.78802 1500 -933.69501
574.24701 1500 -939.38397
620.72803 1500 -962.14398
699.70801 1500 -1031.89
730.22302 1500 -1023.14
755.633 1500 -1003.9
800.78699 1500 -1012.95
806.17297 1500 -969.31702
866.854 1500 -992.81799
879.35699 1500 -960.17499
944.17401 1500 -980.927
988.39801 1500 -980.88
1021.34 1500 -964.46198
1055.11 1500 -948.466
1083.26 1500 -927.75299
1137.49 1500 -926.78699
1166.3199 1500 -904.58698
1195.21 1500 -880.883
1249.38 1500 -875.33197
1295.4399 1500 -861.50403
1323.17 1500 -833.85199
1382.3 1500 -825.44501
1416.9399 1500 -800.64697
1450.71 1500 -772.88098
1483.59 1500 -745.25403
1512.01 1500 -669.242
-1875.6 1500 -1127.67
-1775.1899 1500 -1127.52
-1543.16 1500 -1091.23
-1526.48 1500 -1133.41
-1405.71 1500 -1098.88
-1325.59 1500 -1089.7
-1263.27 1500 -1091.51
-1199.27 1500 -1088.74
-1137.51 1500 -1085.37
-1077.8101 1500 -1081.34
-1031.77 1500 -1084.3
-974.58899 1500 -1082.39
-922.974 1500 -1076.5
-874.87903 1500 -1074.98
-831.22498 1500 -1072.9399
-787.75098 1500 -1070.6801
-742.34003 1500 -1062.64
-702.09003 1500 -1059.49
-662.45001 1500 -1055.01
-621.80603 1500 -1049.0601
-591.93597 1500 -1053.61
-559.75 1500 -1055.51
-525.57397 1500 -1053.42
-487.008 1500 -1040.6801
-455.28101 1500 -1037.77
-425.978 1500 -1038.8
-393.004 1500 -1032.22
-363.612 1500 -1031.28
-337.54901 1500 -1036.9399
-319.867 1500 -1071.27
-307.54199 1500 -1120.8199
-284.23999 1500 -1142.6801
-245.938 1500 -1113.67
-214.89301 1500 -1100.72
-190.631 1500 -1113.04
-166.38 1500 -1140.9301
-136.021 1500 -1125.5601
-110.726 1500 -1143.4
-79.1688 1500 -1114.6899
-52.890999 1500 -1120.25
-25.7045 1500 -1108.7
1.19364 1500 -1094.25
28.8234 1500 -1089.37
53.630501 1500 -1067.9
78.619003 1500 -1038.78
105.864 1500 -1028.8199
130.15401 1500 -1016.45
154.40601 1500 -1010.52
177.911 1500 -1002.59
201.84399 1500 -999.06403
227.144 1500 -990.02698
248.84 1500 -980.92999
277.08401 1500 -987.617
301.23801 1500 -980.52002
325.89499 1500 -975.76599
351.25201 1500 -973.30798
372.716 1500 -961.53998
392.80899 1500 -941.05798
429.47198 1500 -963.90198
454.086 1500 -956.70599
481.28201 1500 -950.32898
506.884 1500 -944.591
532.29102 1500 -933.67798
563.96301 1500 -937.43402
606.117 1500 -954.28101
690.16101 1500 -1032.29
709.14697 1500 -1008.66
747.34998 1500 -1008.83
781.84003 1500 -1002.4
799.48901 1500 -975.80701
848.76001 1500 -986.66602
872.95801 1500 -966.33301
914.823 1500 -964.02301
977.47198 1500 -981.211
1023.04 1500 -978.27899
1057.46 1500 -962.63898
1089.5601 1500 -946.099
1123.9399 1500 -927.53802
1155.76 1500 -907.55402
1188.7 1500 -887.14099
1238.16 1500 -879.09802
1271.8 1500 -856.82898
1317.27 1500 -842.224
1358.51 1500 -821.83099
1411.03 1500 -807.49402
1439 1500 -776.74402
1473.02 1500 -749.53003
1402.97 1500 -670.59302
1507.61 1500 -676.65802
-1965.62 1530 -1128.4301
-1857.54 1530 -1128.5699
-1780.6801 1530 -1142.63
-1520.58 1530 -1085.87
-1474.1899 1530 -1108.99
-1368.41 1530 -1082.4
-1333.97 1530 -1108.22
-1250.38 1530 -1094.14
-1186.27 1530 -1089.99
-1130.5601 1530 -1091.17
-1067.16 1530 -1080.63
-1013.61 1530 -1084.59
-962.46503 1530 -1082.5
-910.93201 1530 -1077.23
-864.38098 1530 -1076.39
-817.505 1530 -1069.61
-776.91101 1530 -1071.17
-729.396 1530 -1060.66
-688.23102 1530 -1056.63
-649.62299 1530 -1052.99
-614.26202 1530 -1052.63
-580.18799 1530 -1054.13
-546.888 1530 -1052.66
-512.284 1530 -1047.4399
-471.35699 1530 -1030.5699
-443.366 1530 -1035.85
-412.89801 1530 -1034.12
-383.78299 1530 -1032.48
-354.88101 1530 -1034.3101
-329.035 1530 -1038.63
-323.96899 1530 -1114.88
-297.827 1530 -1124.99
-273.44199 1530 -1141.71
-242.097 1530 -1131.39
-213.97301 1530 -1140.6
-184.715 1530 -1138.11
-157.25 1530 -1141.47
-129.33501 1530 -1140.6899
-99.460503 1530 -1140.42
-70.943298 1530 -1115
-42.492298 1530 -1120.4399
-15.4105 1530 -1086.64
11.5926 1530 -1089.9399
37.2901 1530 -1067.85
63.4995 1530 -1052.34
90.402298 1530 -1033.3
116.503 1530 -1017.6
140.23399 1530 -1011.83
164.57899 1530 -1005.37
188.73801 1530 -998.57001
212.864 1530 -993.45099
236.422 1530 -984.76801
261.91699 1530 -978.55402
287.39301 1530 -981.02002
311.991 1530 -977.414
337.315 1530 -971.87701
364.22699 1530 -968.52802
392.04199 1530 -971.09998
415.98999 1530 -962.44702
438.70099 1530 -950.93298
463.15201 1530 -939.82501
488.62799 1530 -936.151
516.55298 1530 -932.48602
547.62903 1530 -933.76099
582.87097 1530 -938.474
628.67798 1530 -961.75098
699.203 1530 -1014.97
726.79602 1530 -1000.35
771.13501 1530 -1010.66
801.84802 1530 -999.64099
813.729 1530 -964.94501
874.26501 1530 -987.63397
917.33398 1530 -985.336
953.04102 1530 -974.06403
997.62201 1530 -970.78003
1029.53 1530 -955.34302
1067.6801 1530 -941.49402
1110.3199 1530 -932.18402
1137.98 1530 -910.26599
1180.53 1530 -899.22198
1212.9399 1530 -878.22498
1263.42 1530 -867.815
1303.4 1530 -848.96399
1343.8101 1530 -830.05603
1383.63 1530 -808.93402
1432.38 1530 -789.39301
1466.01 1530 -763.15503
1383.37 1530 -676.11401
1508.96 1530 -693.64398
1541.65 1530 -663.83899
-1900.16 1530 -1117.1899
-1786.6899 1530 -1109.6801
-1508.29 1530 -1045.12
-1500.85 1530 -1093.5601
-1422.58 1530 -1092.2
-1336.42 1530 -1079.1899
-1284.8101 1530 -1092.49
-1219.66 1530 -1090.38
-1157.77 1530 -1086.15
-1101.6801 1530 -1084.98
-1044.99 1530 -1082.71
-982.23901 1530 -1075.45
-934.39203 1530 -1074.9
-886.77698 1530 -1073.96
-841.45502 1530 -1070.98
-798.60602 1530 -1068.86
-755.63702 1530 -1066.73
-714.16901 1530 -1062.55
-670.28101 1530 -1052.13
-630.87799 1530 -1048.01
-600.34998 1530 -1053.73
-565.04303 1530 -1052.97
-534.08099 1530 -1055.3
-492.28601 1530 -1037.92
-457.90799 1530 -1029.23
-434.42401 1530 -1043.16
-398.99899 1530 -1030.1801
-369.681 1530 -1032.3
-343.685 1530 -1034.66
-323.22101 1530 -1058.24
-314.08701 1530 -1121.86
-289.84601 1530 -1141.27
-257.444 1530 -1137.74
-230.51199 1530 -1145.79
-200.444 1530 -1144.0699
-172.327 1530 -1140.3
-143.32401 1530 -1144.0601
-115.378 1530 -1142.6899
-85.128098 1530 -1124.78
-57.501301 1530 -1108.76
-29.937201 1530 -1108.6
-2.9500101 1530 -1081.75
24.210501 1530 -1082.48
50.073101 1530 -1060.5699
76.222397 1530 -1044.97
103.033 1530 -1028.85
125.901 1530 -1011.7
151.53101 1530 -1006.41
175.105 1530 -1001.05
200.92799 1530 -995.93402
225.358 1530 -989.66602
247.241 1530 -974.62903
273.38699 1530 -981.64203
298.36899 1530 -978.78302
324.673 1530 -975.646
348.82599 1530 -970.72803
374.76999 1530 -964.49701
400.85501 1530 -961.81
425.198 1530 -954.31097
449.47601 1530 -946.995
469.53799 1530 -929.65399
498.98099 1530 -929.25598
525.18298 1530 -927.078
559.73199 1530 -934.43402
601.487 1530 -951
682.64099 1530 -1026.49
704.74402 1530 -1004.73
746.18597 1530 -1011.87
781.89301 1530 -1008.69
818.30103 1530 -1004.34
827.492 1530 -964.06799
892.51703 1530 -991.784
935.651 1530 -989.74799
968.37201 1530 -976.85999
1017.75 1530 -978.01501
1045.5 1530 -956.45599
1079.79 1530 -940.19598
1120.58 1530 -930.42603
1152.49 1530 -910.08301
1188.29 1530 -889.35999
1231.3199 1530 -875.76398
1270.27 1530 -857.31
1316.96 1530 -844.56
1363.8101 1530 -827.07098
1403.42 1530 -806.19
1438.61 1530 -780.086
1471.6 1530 -752.85498
1395.97 1530 -669.586
1513.88 1530 -683.44299
-1973.49 1530 -1115.12
-1878.37 1530 -1123.0699
-1767.27 1530 -1115.74
-1457.41 1530 -1079.65
-1406.61 1530 -1096.5
-1341.1899 1530 -1099.47
-1272.36 1530 -1095.13
-1205.5699 1530 -1091.47
-1139.77 1530 -1083.37
-1085.24 1530 -1083.46
-1029.04 1530 -1079.65
-976.48602 1530 -1080.34
-927.46899 1530 -1080.55
-877.08801 1530 -1073.5
-833.271 1530 -1071.35
-792.323 1530 -1073.21
-742.35699 1530 -1058.35
-703.78601 1530 -1060.16
-664.86298 1530 -1054.38
-628.47498 1530 -1054.41
-592.05798 1530 -1053.8199
-560.66602 1530 -1054.46
-525.797 1530 -1053.87
-491.54199 1530 -1047.39
-455.646 1530 -1037.0699
-429.772 1530 -1048.05
-394.21899 1530 -1032.02
-365.60999 1530 -1029.77
-339.14499 1530 -1038
-320.52301 1530 -1071.33
-306.90601 1530 -1119.7
-281.00101 1530 -1136.27
-253.80299 1530 -1141.88
-221.189 1530 -1131.33
-195.66901 1530 -1140.59
-166.272 1530 -1140.1899
-136.19299 1530 -1129.5699
-110.367 1530 -1142.9301
-78.847198 1530 -1114.46
-52.222099 1530 -1112.53
-25.333401 1530 -1105.71
1.4773901 1530 -1083.5
28.933399 1530 -1082.36
54.121899 1530 -1060.37
78.298302 1530 -1034.54
104.209 1530 -1026.47
128.321 1530 -1010.89
154.028 1530 -1008.05
179.005 1530 -1002.39
203.05099 1530 -995.24799
227.00301 1530 -993.13702
248.82001 1530 -978.61298
275.46701 1530 -983.91602
301.405 1530 -979.16101
327.56699 1530 -978.10699
351.25201 1530 -973.30798
375.73999 1530 -964.65601
401.44901 1530 -961.021
427.883 1530 -956.12402
451.173 1530 -949.23297
472.133 1530 -932.263
500.586 1530 -929.81097
530.28998 1530 -931.94
560.73297 1530 -930.91498
601.99799 1530 -950.08502
689.883 1530 -1031.87
706.93402 1530 -1003.19
746.84399 1530 -1010.45
784.245 1530 -1007.18
811.53101 1530 -990.50403
826.26099 1530 -960.51099
890.08197 1530 -986.91199
934.00098 1530 -984.76898
973.41302 1530 -977.13702
1018.72 1530 -976.28101
1046.8101 1530 -955.03003
1084.47 1530 -941.67297
1127.17 1530 -932.26898
1154.87 1530 -907.875
1187.01 1530 -889.40802
1232.62 1530 -875.67102
1271.92 1530 -858.42798
1317.86 1530 -843.617
1358.02 1530 -824.57098
1396.05 1530 -802.461
1437.3101 1530 -780.39301
1472.6801 1530 -752.39398
1388.48 1530 -667.85699
1506.05 1530 -678.91803
-1989.99 1530 -1119.45
-1880.72 1530 -1119.61
-1757.03 1530 -1105.26
-1503.52 1530 -1108.11
-1401.5 1530 -1087.6
-1343.4 1530 -1096.38
-1274.26 1530 -1092.53
-1214.15 1530 -1095.02
-1140.76 1530 -1081.95
-1085.71 1530 -1081.5699
-1030.6801 1530 -1078.4301
-974.30701 1530 -1075.5699
-929.367 1530 -1078.58
-882.30603 1530 -1075.6899
-834.00897 1530 -1071.09
-787.552 1530 -1064.92
-744.65399 1530 -1061.63
-705.38098 1530 -1058.8
-665.992 1530 -1054.26
-626.84198 1530 -1051.02
-592.67499 1530 -1052.9
-561.711 1530 -1055.04
-530.513 1530 -1056.8199
-490.69601 1530 -1043.37
-456.15201 1530 -1034.39
-433.29001 1530 -1054.1801
-394.754 1530 -1033.42
-366.591 1530 -1030.75
-337.02899 1530 -1033.4301
-320.45599 1530 -1070.05
-307.34399 1530 -1120.1
-283.51599 1530 -1139.77
-254.371 1530 -1141.5
-223.862 1530 -1135.14
-195.345 1530 -1136.84
-166.11301 1530 -1136.9301
-137.666 1530 -1131.41
-110.676 1530 -1139.64
-80.992699 1530 -1114.5601
-52.651001 1530 -1108.75
-25.7624 1530 -1111.2
2.36274 1530 -1083
28.3496 1530 -1082.63
53.832699 1530 -1060.38
78.7295 1530 -1032.75
103.674 1530 -1026.78
127.731 1530 -1008.44
152.57899 1530 -1007.76
178.10699 1530 -1000.52
201.24899 1530 -998.92902
225.64799 1530 -993.44598
248.10201 1530 -978.02197
274.25699 1530 -981.659
300.47601 1530 -977.09198
325.62 1530 -978.49298
350.72101 1530 -973.5
375.64899 1530 -964.42297
400.759 1530 -961.57898
426.11401 1530 -956.36603
451.28101 1530 -949.45898
474.47601 1530 -937.52301
501.10901 1530 -933.21997
529.90503 1530 -932.44702
558.69501 1530 -930.974
600.39203 1530 -947.55103
685.841 1530 -1028.86
705.474 1530 -1006.35
745.57202 1530 -1010.46
782.01398 1530 -1008.28
806.58801 1530 -987.76398
828.40698 1530 -964.60101
889.005 1530 -987.88202
932.388 1530 -986.29602
972.43298 1530 -978.81799
1018.28 1530 -976.38501
1059.97 1530 -969.16101
1079.6 1530 -940.03198
1120.89 1530 -929.65601
1154.22 1530 -909.91302
1186.25 1530 -888.33502
1231.7 1530 -876.53497
1270.01 1530 -858.14203
1316.77 1530 -843.93103
1357.14 1530 -825.052
1394.53 1530 -802.09399
1436.88 1530 -781.177
1471.21 1530 -754.17297
1387.8 1530 -667.53198
1513.6899 1530 -683.85602
-1986.37 1530 -1123.83
-1864.7 1530 -1117.66
-1812.9399 1530 -1145.95
-1573.24 1530 -1108
-1474.28 1530 -1092.16
-1397.84 1530 -1090.27
-1341.1899 1530 -1099.47
-1264.84 1530 -1090.45
-1205.41 1530 -1093.12
-1138.11 1530 -1084.75
-1084.47 1530 -1083.88
-1027.98 1530 -1080.3101
-971.28802 1530 -1076.95
-924.11298 1530 -1077.8199
-875.93903 1530 -1075.08
-831.22498 1530 -1072.9399
-788.48297 1530 -1070.45
-740.62402 1530 -1059.5699
-700.73297 1530 -1056.1899
-660.01501 1530 -1052.41
-628.25098 1530 -1056
-591.23901 1530 -1053.71
-558.07703 1530 -1055.83
-526.06702 1530 -1055.13
-484.005 1530 -1033.53
-450.96201 1530 -1031.75
-424.84399 1530 -1039.27
-393.552 1530 -1032.8101
-364.20599 1530 -1030.27
-336.388 1530 -1033.38
-323.284 1530 -1074.16
-306.97198 1530 -1119.9399
-284.198 1530 -1139.85
-255.187 1530 -1145.16
-223.088 1530 -1131.21
-195.231 1530 -1139.9
-167.241 1530 -1140.3
-139.175 1530 -1133.49
-111.608 1530 -1139.55
-81.582298 1530 -1114.27
-54.054501 1530 -1112.6899
-25.3964 1530 -1108.46
0.29629701 1530 -1086.5
28.4347 1530 -1085.88
53.266899 1530 -1060.66
78.317101 1530 -1034.79
104.588 1530 -1019.15
129.911 1530 -1010.18
153.554 1530 -1008.63
179.278 1530 -1002.34
201.694 1530 -995.52399
225.29401 1530 -988.14203
250.177 1530 -980.58899
274.99301 1530 -981.19299
301.819 1530 -979.55603
326.16101 1530 -975.677
352.314 1530 -972.92499
375.73999 1530 -964.65601
400.362 1530 -957.68201
427.46301 1530 -956.58502
453.23999 1530 -951.57202
473.31799 1530 -930.82098
501.90701 1530 -931.65601
530.67499 1530 -931.43402
559.97498 1530 -931.95502
605.45398 1530 -953.81299
689.883 1530 -1031.87
707.23602 1530 -1004.2
750.68701 1530 -1015.07
785.06897 1530 -1006.54
801.96503 1530 -979.91901
832.78198 1530 -968.09198
891.15802 1530 -985.94
934.07599 1530 -985.38702
970.67999 1530 -973.86102
1018.81 1530 -975.83002
1044.04 1530 -949.90002
1086.0601 1530 -940.98102
1123.5 1530 -927.685
1160.96 1530 -912.66498
1188.46 1530 -887.46503
1227.35 1530 -871.42798
1272.39 1530 -857.73499
1317.48 1530 -842.35901
1358.9301 1530 -822.58899
1403 1530 -804.41998
1444.74 1530 -781.883
1479.5699 1530 -755.40198
1402.87 1530 -671.95599
1514.35 1530 -681.17297
-1894.53 1560 -1125.73
-1782.25 1560 -1117.74
-1485.42 1560 -1096.02
-1416.11 1560 -1100.1801
-1337.1801 1560 -1092.52
-1280 1560 -1099.28
-1201.16 1560 -1086.28
-1139.29 1560 -1083.51
-1089.95 1560 -1089.35
-1028.5699 1560 -1079.75
-975.97601 1560 -1082.15
-924.21198 1560 -1076.75
-879.39099 1560 -1078.72
-835.61401 1560 -1076.1801
-787.315 1560 -1071.3101
-743.05902 1560 -1063.05
-699.70599 1560 -1057.77
-661.71997 1560 -1055.77
-623.68597 1560 -1052.89
-589.802 1560 -1054.52
-557.73401 1560 -1056.58
-521.88 1560 -1056.09
-480.51501 1560 -1034.88
-452.633 1560 -1038.66
-422.004 1560 -1042.04
-387.52899 1560 -1031.35
-361.04599 1560 -1032.97
-332.35599 1560 -1037.3101
-321.14099 1560 -1090.7
-302.02499 1560 -1125.95
-278.99899 1560 -1144.23
-249.786 1560 -1150.45
-219.612 1560 -1148.1899
-188.931 1560 -1146.28
-160.467 1560 -1141.78
-131.541 1560 -1140.6899
-103.48 1560 -1139.8101
-71.9496 1560 -1111.67
-44.626099 1560 -1112.61
-17.7279 1560 -1083.35
9.51192 1560 -1089.96
36.5443 1560 -1071.63
62.4454 1560 -1049.14
85.696999 1560 -1027.9301
114.06 1560 -1015.87
137.283 1560 -1006.68
162.181 1560 -1002.72
186.73599 1560 -996.91199
213.03 1560 -992.90399
236.608 1560 -983.17999
259.746 1560 -975.77002
286.21301 1560 -977.979
311.345 1560 -974.47101
337.41599 1560 -971.31299
361.414 1560 -966.646
391.59 1560 -970.74298
411.82901 1560 -949.26501
434.64001 1560 -938.76398
458.164 1560 -927.789
488.56 1560 -934.77698
517.33801 1560 -930.90601
551.315 1560 -935.36401
583.11902 1560 -937.73199
624.97998 1560 -950.42401
707.98499 1560 -1025.92
730.57703 1560 -1004.4
773.33801 1560 -1008.97
808.09998 1560 -1000.71
825.39899 1560 -971.77197
865.91803 1560 -972.31201
918.96997 1560 -982.784
963.23297 1560 -979.12402
1000.28 1560 -969.12299
1028.9399 1560 -947.51001
1072.26 1560 -939.31299
1113.3 1560 -929.00897
1146.14 1560 -909.64502
1184.78 1560 -892.79303
1217.6801 1560 -872.07397
1267.92 1560 -860.77002
1313.64 1560 -846.48297
1348.33 1560 -822.216
1395.8199 1560 -804.86401
1436.24 1560 -782.35199
1477.22 1560 -757.25201
1395.0601 1560 -671.48901
1513.6899 1560 -683.85602
-1854.77 1560 -1105.53
-1754.89 1560 -1107.25
-1529.26 1560 -1129.66
-1407.4 1560 -1097.11
-1334.34 1560 -1093.24
-1272.41 1560 -1096.98
-1206.6801 1560 -1092.47
-1138.11 1560 -1084.75
-1080.11 1560 -1080.11
-1028.16 1560 -1080.49
-969.98602 1560 -1078.46
-922.38702 1560 -1077
-875.03699 1560 -1075.17
-828.99701 1560 -1073.08
-784.05298 1560 -1066.26
-740.45697 1560 -1063.64
-697.763 1560 -1055.45
-660.521 1560 -1057.7
-624.69897 1560 -1057.23
-586.41498 1560 -1051.8199
-553.50702 1560 -1053.4399
-521.71899 1560 -1051.4301
-479.845 1560 -1034.92
-448.79199 1560 -1032.15
-418.53101 1560 -1031.04
-389.12799 1560 -1030.48
-360.68201 1560 -1032.83
-330.46399 1560 -1035.29
-325.06601 1560 -1109.62
-301.67001 1560 -1127.08
-275.36899 1560 -1141.51
-246.21899 1560 -1143.03
-216.21201 1560 -1137.13
-186.935 1560 -1145.85
-157.041 1560 -1142.26
-130.52299 1560 -1145.59
-100.751 1560 -1137.3
-69.492996 1560 -1111.33
-42.340698 1560 -1116.45
-15.1107 1560 -1086.39
12.5244 1560 -1093.4301
39.1469 1560 -1070.78
63.4235 1560 -1046.33
88.542801 1560 -1028.1899
114.614 1560 -1015.8
138.65601 1560 -1006.49
162.84801 1560 -1003.37
187.73599 1560 -997.74103
211.23801 1560 -993.79797
236.13 1560 -983.552
258.948 1560 -975.98199
285.24399 1560 -975.65802
312.10599 1560 -976.85199
336.336 1560 -972.48102
361.67801 1560 -965.74597
390.655 1560 -968.42499
411.30399 1560 -953.034
432.79999 1560 -940.164
457.405 1560 -928.164
486.66101 1560 -932.383
516.16498 1560 -932.98602
544.34003 1560 -928.15399
582.40002 1560 -942.29498
616.12598 1560 -943.672
697.677 1560 -1015.72
725.198 1560 -1002.74
771.01099 1560 -1011.07
797.979 1560 -995.37299
818.63202 1560 -972.90997
863.42902 1560 -974.85699
904.42297 1560 -974.12701
954.66998 1560 -979.46198
995.323 1560 -972.78003
1023.62 1560 -951.41901
1070.9399 1560 -948.00403
1108.73 1560 -932.91199
1137.39 1560 -909.79797
1174.3199 1560 -894.99799
1208.12 1560 -874.22998
1252.52 1560 -859.83002
1309.66 1560 -853.55103
1344.89 1560 -830.21503
1397.9 1560 -815.73901
1445.96 1560 -797.90399
1458.2 1560 -757.57599
1390.96 1560 -679.35699
1517.25 1560 -695.953
-1904.5 1560 -1109.28
-1814.85 1560 -1116.91
-1752.08 1560 -1137.14
-1550.2 1560 -1120.48
-1443.95 1560 -1098
-1369.3101 1560 -1096.53
-1299.0601 1560 -1093.0699
-1226.15 1560 -1084.21
-1174.4399 1560 -1091
-1111.0601 1560 -1086.49
-1050.23 1560 -1078.6801
-995.05298 1560 -1079.98
-948.76398 1560 -1081.26
-900.31201 1560 -1078.3101
-849.41699 1560 -1072.66
-805.39697 1560 -1070.01
-760.86401 1560 -1063.01
-719.06201 1560 -1061.05
-679.19299 1560 -1055.92
-642.01099 1560 -1057.35
-605.24103 1560 -1052.95
-571.08301 1560 -1054.55
-539.75897 1560 -1055.78
-504.487 1560 -1051.77
-463.75601 1560 -1034.01
-436.383 1560 -1038.27
-403.83301 1560 -1031.79
-373.70499 1560 -1031.12
-346.47501 1560 -1030.83
-322.12701 1560 -1044.45
-318.05801 1560 -1118.4
-290.78201 1560 -1133.29
-265.90701 1560 -1143.23
-235.922 1560 -1145.2
-204.81599 1560 -1137.97
-176.554 1560 -1142.9399
-150.11301 1560 -1147.47
-120.336 1560 -1141.9301
-91.072701 1560 -1137.36
-62.231899 1560 -1112.01
-35.100101 1560 -1109.1899
-5.8850002 1560 -1078.98
19.196301 1560 -1082.83
45.325901 1560 -1064.79
71.662102 1560 -1045.3
96.567101 1560 -1017.43
121.344 1560 -1008.73
146.291 1560 -1008.95
170.189 1560 -1001.9
195.381 1560 -999.32898
220.065 1560 -991.36902
241.526 1560 -973.22803
267.38501 1560 -976.55603
293.664 1560 -978.63898
319.82101 1560 -974.35303
343.849 1560 -969.31897
370.73199 1560 -965.789
397.935 1560 -968.15997
415.151 1560 -940.71698
440.90302 1560 -937.49701
463.358 1560 -924.927
496.936 1560 -934.59998
522.53003 1560 -928.289
559.35498 1560 -939.60797
592.24799 1560 -942.63898
642.21198 1560 -972.00299
703.625 1560 -1011.91
745.23401 1560 -1017.53
781.60901 1560 -1014.6
816.30603 1560 -1006.93
831.41199 1560 -974.534
876.43799 1560 -977.664
925.04797 1560 -984.96802
962.46997 1560 -973.55701
1005.73 1560 -971.75403
1034.4 1560 -950.44702
1071.9 1560 -937.448
1114.0601 1560 -928.09802
1142.24 1560 -904.51398
1182.6899 1560 -892.23401
1222.28 1560 -876.38
1273.21 1560 -865.88501
1319.4399 1560 -852.25598
1347.85 1560 -824.44501
1394.0699 1560 -807.40198
1435.39 1560 -784.42999
1475.99 1560 -760.185
1393.42 1560 -672.57501
1504.73 1560 -684.25702
1553.22 1560 -660.30402
-1919.41 1560 -1114.46
-1839.4301 1560 -1131.35
-1787.74 1560 -1158.89
-1542.1 1560 -1112.0699
-1452.11 1560 -1104.21
-1355.35 1560 -1085.96
-1299.36 1560 -1092.71
-1231.92 1560 -1090.51
-1168.65 1560 -1086.22
-1107.1899 1560 -1083.3
-1049.36 1560 -1077.78
-999.87903 1560 -1084.03
-943.65198 1560 -1075.4399
-900.44598 1560 -1077.88
-854.17902 1560 -1076.86
-806.86499 1560 -1069.53
-760.13898 1560 -1063.22
-722.15802 1560 -1064.99
-678.46399 1560 -1056.6899
-640.51001 1560 -1053.58
-602.74902 1560 -1048.61
-571.255 1560 -1050.75
-539.93298 1560 -1055.41
-504.811 1560 -1052.4399
-464.884 1560 -1033.51
-434.46201 1560 -1035.28
-402.26199 1560 -1030.25
-376.13699 1560 -1033.4301
-345.73901 1560 -1034.24
-321.76801 1560 -1044.3
-315.85501 1560 -1118.77
-290.59698 1560 -1137.72
-263.673 1560 -1140.67
-234.411 1560 -1145.77
-203.707 1560 -1138.9301
-176.12801 1560 -1142.25
-147.858 1560 -1147.26
-117.508 1560 -1141.97
-90.107597 1560 -1140.95
-60.135899 1560 -1112.63
-31.4417 1560 -1108.3
-4.9987798 1560 -1078.24
21.2633 1560 -1082.79
48.5084 1560 -1064.4
73.331497 1560 -1048.6899
98.292297 1560 -1015
124.125 1560 -1008.64
147.558 1560 -1008.01
172.836 1560 -1000.94
197.62 1560 -996.341
221.741 1560 -991.25098
243.724 1560 -975.25702
270.11301 1560 -976.06403
295.07501 1560 -975.60303
321.681 1560 -973.74103
346.177 1560 -971.67603
372.49799 1560 -966.44897
400.50101 1560 -967.64203
418.36499 1560 -943.12201
445.04199 1560 -941.62598
465.96399 1560 -924.45599
497.69501 1560 -930.51202
525.63098 1560 -931.41901
558.33002 1560 -935.56299
593.276 1560 -941.992
646.93597 1560 -973.37097
700.39099 1560 -1002.59
746.47302 1560 -1016.32
783.974 1560 -1013.09
818.70001 1560 -1005.95
829.60999 1560 -970.81201
870.36102 1560 -970.35303
926.29303 1560 -984.14099
967.31201 1560 -976.85498
1011.2 1560 -974.37201
1035.36 1560 -949.76898
1072.85 1560 -936.73499
1115.64 1560 -925.81
1151.7 1560 -911.49402
1185.92 1560 -889.60602
1231.42 1560 -877.35101
1275.9301 1560 -863.66498
1315.87 1560 -844.87299
1357.16 1560 -824.052
1402.98 1560 -807.96997
1437.08 1560 -779.763
1478.47 1560 -755.35101
1415.85 1560 -679.59497
1513.34 1560 -682.20599
-1877.35 1560 -1125.24
-1800.27 1560 -1139.3199
-1563.53 1560 -1101.8
-1480.62 1560 -1101.23
-1397.23 1560 -1093.48
-1317.77 1560 -1083.87
-1263.62 1560 -1093.01
-1203.4399 1560 -1094.9301
-1137.05 1560 -1087.3
-1082.22 1560 -1085.77
-1020.29 1560 -1076.9301
-968.30798 1560 -1078.96
-915.948 1560 -1073.62
-874.17902 1560 -1076.52
-824.78601 1560 -1070.64
-782.45898 1560 -1068.36
-736.58698 1560 -1060.55
-696.14502 1560 -1058.02
-656.76898 1560 -1052.97
-620.33899 1560 -1053.13
-586.49298 1560 -1052.64
-552.47302 1560 -1054.26
-515.70898 1560 -1045.75
-476.901 1560 -1028.5699
-449.539 1560 -1036.1899
-418.43799 1560 -1032.4301
-387.07199 1560 -1030.98
-359.55499 1560 -1033.23
-333.004 1560 -1034.47
-327.25699 1560 -1104.8
-302.57501 1560 -1125.54
-277 1560 -1140.08
-249.994 1560 -1149.89
-219.711 1560 -1140.28
-191.707 1560 -1141.77
-161.98801 1560 -1141.3101
-134.487 1560 -1141.61
-104.782 1560 -1136.9301
-75.604103 1560 -1111.6801
-47.820599 1560 -1116.23
-19.568001 1560 -1087.0699
8.0036297 1560 -1086.97
34.394001 1560 -1068.45
60.557098 1560 -1056.27
83.874496 1560 -1043.89
110.881 1560 -1022.76
135.386 1560 -1009.21
159.01601 1560 -1003.99
184.83299 1560 -998.79199
208.989 1560 -996.57202
232.312 1560 -987.79999
256.36099 1560 -975.88898
280.92499 1560 -977.69
307.49899 1560 -978.04999
333.68301 1560 -973.39502
357.62 1560 -970.18701
383.85001 1560 -964.41901
407.92599 1560 -958.83301
432.88599 1560 -947.82599
454.73901 1560 -933.646
479.51501 1560 -927.92499
510.67599 1560 -931.44202
541.771 1560 -936.01599
572.53998 1560 -935.44598
609.43799 1560 -942.94897
699.28699 1560 -1031.87
712.70099 1560 -995.71997
763.94897 1560 -1016.1
803.76501 1560 -1017.29
822.04901 1560 -988.95502
867.45398 1560 -992.95898
888.27399 1560 -967.26099
941.06598 1560 -976.63202
985.38202 1560 -975.755
1023.1 1560 -962.961
1064.74 1560 -956.07501
1097.2 1560 -937.61499
1131.46 1560 -920.33398
1163.45 1560 -899.31403
1200.5601 1560 -883.31299
1245.1 1560 -868.79602
1290.41 1560 -854.612
1344 1560 -844.41602
1370.54 1560 -815.38501
1419.77 1560 -798.16602
1454.16 1560 -770.651
1420.01 1560 -707.50598
1488.64 1560 -697.62701
1520.79 1560 -669.164
-1990.8199 1590 -1152.3
-1879.65 1590 -1151.85
-1766.75 1590 -1142.55
-1401.86 1590 -1119.47
-1342.1899 1590 -1126.85
-1257.6801 1590 -1112.7
-1192.34 1590 -1108.84
-1135.5601 1590 -1108.63
-1075.6 1590 -1103.53
-1017.18 1590 -1100.38
-969.78302 1590 -1103.4
-912.96997 1590 -1093.47
-866.11499 1590 -1090.6899
-817.40503 1590 -1083.5
-770.76099 1590 -1076.22
-729.79498 1590 -1073.11
-691.00403 1590 -1073
-649.56897 1590 -1069.14
-611.46997 1590 -1063.78
-575.65802 1590 -1062.3
-544.60199 1590 -1064.53
-507.91101 1590 -1058.17
-467.13199 1590 -1041.54
-439.30399 1590 -1047.62
-408.845 1590 -1044.59
-377.28 1590 -1038.33
-348.651 1590 -1040.12
-320.491 1590 -1045.22
-307.746 1590 -1091.1801
-287.444 1590 -1126.66
-264.52399 1590 -1151.51
-228.924 1590 -1125.2
-197.03999 1590 -1108.63
-173.11 1590 -1139.17
-144.91499 1590 -1144.11
-115.553 1590 -1135.13
-87.573997 1590 -1144.65
-58.3153 1590 -1112.72
-31.8104 1590 -1121.3
-3.59319 1590 -1097.99
24.4508 1590 -1093.23
51.984299 1590 -1082.25
75.871002 1590 -1052.02
102.08 1590 -1042.26
127.817 1590 -1020.27
150.547 1590 -1011.1
175.735 1590 -1006.27
199.86501 1590 -997.677
225.106 1590 -993.56897
249.29201 1590 -981.58899
273.302 1590 -974.138
300.06299 1590 -976.69598
324.86499 1590 -972.68298
349.03699 1590 -967.995
375.12299 1590 -964.62799
402.13901 1590 -960.461
424.66901 1590 -948.25
447.086 1590 -937.33502
472.95099 1590 -930.72699
498.319 1590 -926.20502
526.70502 1590 -925.63898
557.61298 1590 -923.45502
593.72998 1590 -932.53101
627.14899 1590 -936.383
717.45697 1590 -1018.71
737.71997 1590 -993.56702
781.99402 1590 -1002.6
809.59601 1590 -985.94702
837.11798 1590 -968.315
878.495 1590 -968.73901
909.93701 1590 -955.21503
963.08398 1590 -964.13501
1008.25 1590 -960.46002
1037.4 1590 -939.73199
1083.3101 1590 -934.98602
1119.51 1590 -918.76001
1147.64 1590 -895.62299
1186.26 1590 -880.79303
1218.61 1590 -858.242
1274.4399 1590 -851.54999
1313.9301 1590 -833.039
1361.64 1590 -816.138
1408.02 1590 -799.66199
1442.17 1590 -771.36298
1476.52 1590 -743.72302
1526.36 1590 -677.586
-1872.66 1590 -1134.96
-1794.14 1590 -1149.88
-1502.6801 1590 -1128.5
-1422.84 1590 -1124.8199
-1347.97 1590 -1121.1
-1271.11 1590 -1111.0601
-1199.52 1590 -1102.17
-1151.9 1590 -1112.98
-1086.39 1590 -1103.11
-1022.19 1590 -1094.37
-979.03601 1590 -1103.5601
-922.19397 1590 -1093.5699
-875.80798 1590 -1090.62
-829.98102 1590 -1088.4
-784.53497 1590 -1084.17
-734.62903 1590 -1068.89
-695.81598 1590 -1070.1801
-658.651 1590 -1068.27
-619.52698 1590 -1064.3199
-583.77899 1590 -1062.71
-550.44397 1590 -1065.1801
-513.20801 1590 -1055.88
-481.27399 1590 -1056.8199
-444.78699 1590 -1042.3101
-420.88699 1590 -1060
-384.04099 1590 -1040.11
-355.12299 1590 -1042.42
-325.56 1590 -1039.46
-306.14801 1590 -1068.77
-293.64801 1590 -1125.3199
-268.12 1590 -1144.26
-241.77699 1590 -1152.92
-206.707 1590 -1122.12
-181.347 1590 -1147
-151.33299 1590 -1142.27
-123.626 1590 -1134.53
-95.4589 1590 -1145.03
-65.802803 1590 -1115.8101
-37.014702 1590 -1112.13
-10.3104 1590 -1111.95
18.306101 1590 -1082.6
44.687 1590 -1084.58
70.275398 1590 -1058.92
96.724403 1590 -1043.28
119.631 1590 -1027.5601
144.258 1590 -1008.48
167.58 1590 -1003.1
192.597 1590 -998.08801
218.00301 1590 -994.896
241.004 1590 -989.57501
264.59 1590 -976.79901
290.54901 1590 -976.961
315.37799 1590 -976.06403
339.681 1590 -967.60901
365.97699 1590 -964.39301
390.26001 1590 -959.14398
416.71899 1590 -953.40698
436.95001 1590 -934.38
461.138 1590 -927.43201
484.02499 1590 -915.13
516.57202 1590 -924.17798
545.97101 1590 -922.841
577.492 1590 -924.742
617.23102 1590 -936.96899
704.539 1590 -1017.36
723.81897 1590 -991.69397
777.02698 1590 -1011.5
810.84998 1590 -1005.23
849.83801 1590 -1000.54
873.80298 1590 -979.01398
901.06598 1590 -961.53302
950.95898 1590 -967.703
999.64203 1590 -967.98102
1041.37 1590 -959.479
1078.42 1590 -947.83301
1098.29 1590 -918.51501
1140.5601 1590 -906.22601
1174.0699 1590 -886.23102
1211.04 1590 -869.32001
1244.02 1590 -847.021
1293.8199 1590 -835.70697
1352.96 1590 -827.57599
1386.49 1590 -804.02301
1427.29 1590 -781.01202
1460.71 1590 -753.82599
1456.6899 1590 -706.547
1489.17 1590 -676.20099
-1950.9 1590 -1154.1899
-1843.23 1590 -1151.78
-1720.4 1590 -1136.6899
-1541.71 1590 -1131.72
-1443.3101 1590 -1116.9
-1383.59 1590 -1125.41
-1304.78 1590 -1116.85
-1228.72 1590 -1105.74
-1181.53 1590 -1116.35
-1109.35 1590 -1102.11
-1051.26 1590 -1095.76
-994.82098 1590 -1093.41
-947.61603 1590 -1095.53
-897.04999 1590 -1088.8101
-850.21698 1590 -1087.62
-802.10303 1590 -1080.28
-759.94098 1590 -1077.16
-718.11902 1590 -1072.84
-675.771 1590 -1065.23
-638.54901 1590 -1064.7
-601.08899 1590 -1061.0699
-567.96899 1590 -1061.9
-531.85901 1590 -1059.5
-500.05801 1590 -1058.03
-458.392 1590 -1036.4
-432.34299 1590 -1048.62
-398.38599 1590 -1039.53
-370.121 1590 -1037.99
-342.069 1590 -1043.09
-314.77899 1590 -1044.86
-309.10999 1590 -1119.35
-282.55801 1590 -1134.6
-258.66299 1590 -1153.35
-220.767 1590 -1119.4399
-196.457 1590 -1135.89
-169.07001 1590 -1144.08
-139.034 1590 -1140.05
-109.695 1590 -1139.23
-82.692398 1590 -1142.26
-53.4716 1590 -1113.22
-26.9235 1590 -1121.6801
1.48114 1590 -1086.25
29.431101 1590 -1089.85
54.213001 1590 -1067.87
80.956398 1590 -1058.16
106.758 1590 -1029.23
129.868 1590 -1014.22
154.616 1590 -1008.21
179.224 1590 -1003.62
203.422 1590 -995.68201
228.28 1590 -990.02197
250.76801 1590 -977.341
274.104 1590 -974.95099
301.52701 1590 -973.89001
326.19101 1590 -972.23901
351.548 1590 -970.80902
376.74899 1590 -961.04102
405.60699 1590 -965.784
424.629 1590 -944.70502
450.02301 1590 -939.53302
472.06201 1590 -925.84998
501.379 1590 -928.24799
529.09497 1590 -925.13898
560.31598 1590 -926.78802
596.10602 1590 -934.57397
629.16699 1590 -934.42603
719.40002 1590 -1017.34
743.63098 1590 -1000.39
784.21399 1590 -1001.49
810.02399 1590 -985.91998
837.18103 1590 -968.92102
881.42102 1590 -972.49799
913.39099 1590 -957.79401
967.50098 1590 -968.55701
1007.81 1590 -960.56299
1036.22 1590 -939.17499
1078.14 1590 -931.03302
1119.92 1590 -920.62799
1153.2 1590 -901.48901
1184.05 1590 -879.15302
1218.26 1590 -860.47998
1274.15 1590 -852.87097
1325.87 1590 -843.14801
1359.88 1590 -818.10699
1405.84 1590 -799.948
1441.13 1590 -773.84003
1474.23 1590 -746.60303
1391.88 1590 -660.16699
1524.61 1590 -680.29401
-1863.42 1590 -1149.61
-1761.12 1590 -1148.47
-1399.8101 1590 -1122.84
-1332.96 1590 -1123.45
-1255.46 1590 -1112.5699
-1191.42 1590 -1107.99
-1129.17 1590 -1104.8
-1070.1899 1590 -1097.98
-1011.78 1590 -1097.54
-954.995 1590 -1090.76
-916.33502 1590 -1097.5
-868.03003 1590 -1095.55
-823.87903 1590 -1092.08
-770.61603 1590 -1076.01
-726.11902 1590 -1068.95
-685.104 1590 -1066.39
-648.62299 1590 -1065.62
-611.547 1590 -1060.5699
-576.93597 1590 -1061.89
-545.64801 1590 -1063.71
-508.957 1590 -1057.39
-468.836 1590 -1040.78
-440.422 1590 -1043.9
-412.772 1590 -1047.88
-379.81 1590 -1040.87
-350.95499 1590 -1040.4
-322.82199 1590 -1042.67
-305.61899 1590 -1078.02
-294.36301 1590 -1131.85
-267.23999 1590 -1147.54
-238.245 1590 -1148.55
-203.828 1590 -1115.02
-178.89 1590 -1143.59
-151.465 1590 -1143.26
-119.994 1590 -1126.88
-93.524101 1590 -1144.4301
-65.208801 1590 -1116.1
-37.048 1590 -1113.13
-9.70609 1590 -1112.21
17.247801 1590 -1090.36
42.9716 1590 -1086.15
69.9702 1590 -1058.6899
97.293404 1590 -1043.22
121.312 1590 -1027.36
145.093 1590 -1010.39
168.77299 1590 -1005.18
193.011 1590 -998.771
217.033 1590 -993.06
242.412 1590 -989.48901
263.20401 1590 -974.84302
290.28201 1590 -977.03998
315.41299 1590 -975.26398
341.28699 1590 -970.48901
365.98599 1590 -967.59698
392.06201 1590 -960.56897
415.71799 1590 -954.66199
436.91299 1590 -939.63898
460.80801 1590 -931.22302
484.66699 1590 -922.422
516.68597 1590 -924.974
546.74402 1590 -927.03003
579.86401 1590 -927.97699
617.62402 1590 -937.00897
701.41602 1590 -1013.45
723.34802 1590 -993.89301
770.26599 1590 -1004.4
809.71399 1590 -1005.51
843.94 1590 -998.005
862.02502 1590 -967.409
896.86298 1590 -958.61798
954.284 1590 -972.146
995.08197 1590 -965.14301
1039.98 1590 -961.35199
1077.13 1590 -949.302
1095.83 1590 -919.508
1144.16 1590 -912.14301
1171.73 1590 -888.48798
1203.29 1590 -867.245
1241.78 1590 -848.97101
1291.76 1590 -838.88
1358.63 1590 -834.60602
1373.72 1590 -798.62402
1420.08 1590 -779.58899
1459.88 1590 -755.41803
1470.59 1590 -716.26398
-1877.55 1590 -1154.79
-1775.05 1590 -1152.73
-1393.4399 1590 -1113.99
-1327.1 1590 -1116.04
-1249.71 1590 -1106.25
-1191.91 1590 -1107.83
-1130.25 1590 -1104.05
-1070.36 1590 -1098.16
-1012.38 1590 -1096.99
-965.19299 1590 -1098.78
-909.44501 1590 -1089.25
-865.66199 1590 -1090.73
-817.83899 1590 -1082.23
-771.04999 1590 -1077.24
-728.50702 1590 -1072.47
-687.849 1590 -1069.38
-647.05103 1590 -1060.4301
-612.71503 1590 -1063.9301
-578.67401 1590 -1065.79
-545.06799 1590 -1064.01
-510.039 1590 -1057.42
-469.017 1590 -1040.42
-440.991 1590 -1043.65
-413.01199 1590 -1051.01
-380.35101 1590 -1041.47
-351.159 1590 -1040.0699
-325.048 1590 -1043.8101
-306.93201 1590 -1078.16
-292.867 1590 -1128.62
-267.55301 1590 -1147.47
-238.034 1590 -1149.1
-202.493 1590 -1118.0601
-178.189 1590 -1143.2
-151.875 1590 -1143.96
-122.089 1590 -1137.72
-93.585197 1590 -1145.1801
-63.843601 1590 -1118.9301
-36.522701 1590 -1115.65
-9.0687904 1590 -1108.46
17.4928 1590 -1087.11
43.850101 1590 -1085.86
69.4254 1590 -1059.23
97.293404 1590 -1043.22
121.693 1590 -1021.02
145.42999 1590 -1008.82
168.53999 1590 -1005.47
195.328 1590 -1003.42
219.30299 1590 -995.63397
242.623 1590 -989.17999
266.25299 1590 -976.60602
291.543 1590 -976.40399
317.40302 1590 -977.77301
343.526 1590 -972.61603
367.21701 1590 -966.86298
392.48199 1590 -963.09802
416.49899 1590 -954.32202
443.57501 1590 -949.22101
464.491 1590 -936.09497
487.478 1590 -923.48499
517.198 1590 -924.11401
549.28003 1590 -928.43597
579.98499 1590 -927.60602
620.979 1590 -943.77899
704.80902 1590 -1016.57
723.401 1590 -991.68903
767.98401 1590 -1001.42
804.84302 1590 -997.23102
831.98602 1590 -980.60999
869.47601 1590 -976.84302
900.26599 1590 -963.30798
951.047 1590 -967.26501
994.89001 1590 -963.90503
1040.0601 1590 -960.89801
1068.9399 1590 -941.57202
1106.47 1590 -925.87402
1144.16 1590 -912.14301
1175.16 1590 -890.58398
1209.45 1590 -870.67798
1253.98 1590 -856.81299
1292.87 1590 -838.09497
1358.4 1590 -834.97699
1378.9 1590 -803.14502
1426.23 1590 -783.46698
1459.28 1590 -757.12598
1485.26 1590 -724.40802
-1929.4399 1620 -1128.04
-1748.87 1620 -1142.52
-1448.89 1620 -1108.01
-1374.42 1620 -1104.9399
-1302.76 1620 -1102.26
-1234.1 1620 -1097.85
-1170.25 1620 -1093.67
-1115.11 1620 -1095.22
-1052.22 1620 -1085.46
-998.52698 1620 -1087.3199
-948.11298 1620 -1086.48
-897.36798 1620 -1080.77
-851.99799 1620 -1079.54
-803.66101 1620 -1072.5699
-758.97803 1620 -1065.89
-720.763 1620 -1070.46
-676.86902 1620 -1058.01
-640.25 1620 -1059
-606.66602 1620 -1060.77
-570.55902 1620 -1059.09
-536.578 1620 -1058.8
-500.43301 1620 -1052.87
-465.30301 1620 -1041.27
-433.453 1620 -1039.23
-404.09399 1620 -1040.8101
-373.233 1620 -1036.87
-345.14999 1620 -1038.13
-318.05099 1620 -1043.35
-314.76599 1620 -1121.9301
-289.60501 1620 -1137.72
-260.505 1620 -1141.14
-233.017 1620 -1150.13
-201.66299 1620 -1140.05
-172.451 1620 -1139.02
-144.789 1620 -1143.12
-116.405 1620 -1146.61
-88.300301 1620 -1137.83
-56.912701 1620 -1115.05
-29.7418 1620 -1112.6
-1.76674 1620 -1079.75
23.832399 1620 -1078.74
49.205399 1620 -1060.61
74.316002 1620 -1046.36
100.198 1620 -1017.33
124.827 1620 -1014.35
150.89301 1620 -1007.77
174.976 1620 -1000.31
199.472 1620 -995.716
222.489 1620 -988.26501
244.64301 1620 -975.54199
270.50601 1620 -972.323
297.202 1620 -974.95697
322.142 1620 -970.69202
347.90601 1620 -967.33899
372.46201 1620 -962.44299
396.43399 1620 -956.33801
417.35101 1620 -940.83698
444.379 1620 -938.89801
465.229 1620 -921.74701
496.04401 1620 -927.42499
526.07098 1620 -926.28699
560.37402 1620 -935.50598
590.15399 1620 -934.20801
644.505 1620 -966.28003
702.73401 1620 -1001.86
748.43201 1620 -1015.5
785.47699 1620 -1011.61
820.02899 1620 -1004.22
847.73297 1620 -986.55902
872.862 1620 -966.75702
925.88 1620 -978.34302
965.20898 1620 -971.547
1013.85 1620 -971.60999
1055.25 1620 -964.31799
1080.12 1620 -937.90302
1122.41 1620 -927.82001
1149.66 1620 -904.79401
1187.62 1620 -887.34003
1226.98 1620 -870.659
1266.25 1620 -852.08698
1324.05 1620 -845.54199
1359.17 1620 -821.21899
1405.1801 1620 -802.61902
1439.66 1620 -777.10101
1480.6 1620 -753.38397
1403.97 1620 -669.65997
1523.1801 1620 -681.651
-1490.1801 1620 -1089.53
-1444.65 1620 -1113.54
-1363.2 1620 -1104.51
-1291.6899 1620 -1101.38
-1223.5699 1620 -1096.88
-1165.77 1620 -1098.45
-1100.4399 1620 -1089.09
-1042.11 1620 -1084.45
-990.15802 1620 -1086.5
-940.95001 1620 -1085.42
-898.09998 1620 -1088.27
-849.03699 1620 -1081.24
-801.026 1620 -1074.54
-756.06799 1620 -1067.96
-716.78198 1620 -1068.3199
-672 1620 -1059.92
-634.46503 1620 -1057.23
-601.38202 1620 -1058.89
-566.83002 1620 -1057.6899
-531.55298 1620 -1056.01
-497.52701 1620 -1053.42
-458.392 1620 -1036.4
-430.33401 1620 -1040.52
-397.892 1620 -1035.7
-370.32001 1620 -1037.65
-343.12 1620 -1039.59
-318.80099 1620 -1049.92
-309.548 1620 -1119.75
-287.72699 1620 -1142.0601
-257.37299 1620 -1144.67
-228.674 1620 -1143.1
-200.77901 1620 -1147.8199
-168.174 1620 -1135.87
-142.823 1620 -1145.13
-112.279 1620 -1139.98
-83.864998 1620 -1141.17
-55.255798 1620 -1112.38
-27.9401 1620 -1113.4
0.88848197 1620 -1086
26.905199 1620 -1072.16
52.5396 1620 -1057.7
77.380699 1620 -1045.14
104.913 1620 -1016.85
127.975 1620 -1008.16
153.67799 1620 -1007.6
177.812 1620 -1003.62
201.739 1620 -992.96399
228.00999 1620 -990.08398
248.304 1620 -974.35901
275.63101 1620 -974.26099
300.08099 1620 -974.85999
326.90701 1620 -971.73499
352.20901 1620 -966.047
377.92401 1620 -963.26599
400.73599 1620 -953.45898
423.65601 1620 -940.48297
447.76199 1620 -932.854
470.40701 1620 -921.362
505.85999 1620 -933.49799
530.56299 1620 -930.05798
566.26202 1620 -936.047
598.513 1620 -937.784
656.58502 1620 -977.44702
706.28101 1620 -999.36499
752.729 1620 -1012.63
786.83502 1620 -1004.84
834.14099 1620 -1013.02
841.73602 1620 -972.58398
882.31299 1620 -971.35101
932.10303 1620 -977.95001
969.43903 1620 -967.32599
1021.62 1620 -971.07202
1046.0699 1620 -946.54602
1083.5 1620 -935.14899
1126.22 1620 -924.77698
1157.78 1620 -904.56097
1190.4301 1620 -884.396
1235.13 1620 -870.383
1280.1801 1620 -856.90399
1339.03 1620 -849.46802
1360.76 1620 -817.12299
1413.67 1620 -803.38098
1449.47 1620 -776.79401
1489.77 1620 -752.43298
1526.03 1620 -678.93597
-1892 1620 -1131.92
-1518.66 1620 -1069.5601
-1473.39 1620 -1093.36
-1413.6899 1620 -1104.5
-1334.39 1620 -1096.33
-1277.6 1620 -1102.0699
-1211.97 1620 -1099.67
-1147.16 1620 -1095.1801
-1088.16 1620 -1091.14
-1032 1620 -1085.12
